0.0,156.0,155.0,154.0,153.0,154.0,154.0,154.0,153.0,152.0,152.0,152.0,152.0,152.0,153.0,154.0,154.0,153.0,154.0,154.0,153.0,152.0,152.0,152.0,152.0,152.0,152.0,152.0,152.0,151.0,150.0,150.0,151.0,152.0,152.0,153.0,153.0,154.0,155.0,155.0,156.0,157.0,158.0,158.0,159.0,160.0,160.0,161.0,161.0,162.0,162.0,163.0,164.0,164.0,165.0,166.0,166.0,166.0,167.0,168.0,169.0,170.0,170.0,171.0,172.0,173.0,173.0,174.0,174.0,175.0,176.0,177.0,177.0,178.0,179.0,180.0,181.0,181.0,182.0,183.0,184.0,184.0,185.0,185.0,186.0,187.0,188.0,189.0,190.0,190.0,191.0,192.0,193.0,194.0,194.0,195.0,196.0,197.0,198.0,199.0,199.0,200.0,201.0,203.0,203.0,204.0,205.0,206.0,207.0,208.0,209.0,209.0,210.0,211.0,213.0,213.0,214.0,215.0,216.0,217.0,218.0,219.0,220.0,222.0,223.0,224.0,225.0,226.0,227.0,229.0,230.0,231.0,232.0,234.0,235.0,236.0,237.0,239.0,240.0,242.0,244.0,246.0,247.0,248.0,249.0,250.0,251.0,252.0,254.0,1.0,1.0,3.0,5.0,5.0,7.0,7.0,7.0,7.0,7.0,9.0,9.0,9.0,9.0,7.0,7.0,7.0,7.0,7.0,7.0,7.0,7.0,7.0,7.0,7.0,9.0,0.0,0.0,0.0,174.0,0.0,0.0,5.0,7.0,0.0,0.0,189.0,0.0,0.0,0.0,0.0,0.0,0.0,0.0,0.0,0.0,0.0,0.0,0.0,0.0,0.0,0.0,0.0,0.0,0.0,0.0,0.0,0.0,0.0,0.0,0.0,0.0,0.0,0.0,0.0,0.0,89.0,0.0,89.0,0.0,0.0,0.0,0.0,0.0,0.0,0.0,0.0,0.0,0.0,0.0,0.0,0.0,0.0,0.0,0.0,0.0,0.0,87.0,89.0,91.0,93.0,0.0,0.0,0.0,0.0,0.0,0.0,0.0,0.0,89.0,0.0,89.0,0.0,0.0,0.0,0.0,0.0,0.0,0.0,0.0,0.0,87.0,85.0,0.0,81.0,0.0,85.0,85.0,0.0,0.0,0.0,0.0,0.0,85.0,0.0,0.0,79.0,81.0,83.0,0.0,85.0,85.0,81.0,0.0,0.0,0.0,0.0,0.0,0.0,0.0,83.0,83.0,81.0,83.0,83.0,83.0,83.0,83.0,83.0,83.0,83.0,81.0,81.0,81.0,83.0,83.0,81.0,81.0,81.0,81.0,81.0,81.0,83.0,83.0,81.0,85.0,85.0,0.0,0.0,130.0,128.0,123.0,120.0,120.0,120.0,120.0,120.0,120.0,120.0,120.0,120.0,120.0,120.0,120.0,119.0,119.0,119.0,119.0,119.0,119.0,119.0,119.0,119.0,119.0,119.0,119.0,119.0,119.0,119.0,119.0,119.0,119.0,119.0,119.0,119.0,119.0,118.0,119.0,118.0,118.0,118.0,118.0,118.0,118.0,118.0,118.0,118.0,118.0,118.0,118.0,118.0,118.0,118.0,118.0,118.0,117.0,117.0,117.0,117.0,117.0,117.0,117.0,117.0,117.0,117.0,117.0,117.0,117.0,117.0,117.0,117.0,117.0,117.0,117.0,117.0,117.0,116.0,116.0,116.0,116.0,116.0,116.0,116.0,116.0,116.0,116.0,116.0,116.0,116.0,116.0,116.0,116.0,116.0,116.0,116.0,116.0,116.0,115.0,115.0,115.0,115.0,115.0,115.0,115.0,115.0,115.0,115.0,115.0,115.0,115.0,115.0,115.0,115.0,115.0,115.0,115.0,115.0,114.0,114.0,114.0,114.0,114.0,114.0,114.0,114.0,114.0,114.0,114.0,114.0,114.0,114.0,114.0,114.0,114.0,114.0,114.0,114.0,114.0,113.0,113.0,114.0,114.0,113.0,113.0,113.0,113.0,113.0,113.0,113.0,113.0,113.0,113.0,113.0,113.0,113.0,113.0,113.0,113.0,113.0,113.0,112.0,112.0,112.0,112.0,112.0,112.0,112.0,112.0,112.0,112.0,111.0,112.0,111.0,111.0,111.0,111.0,111.0,111.0,111.0,111.0,111.0,111.0,111.0,111.0,110.0,110.0,110.0,110.0,110.0,111.0,111.0,111.0,0.0
0.0,156.0,155.0,155.0,153.0,152.0,154.0,155.0,153.0,152.0,152.0,153.0,152.0,153.0,153.0,154.0,153.0,153.0,153.0,153.0,152.0,152.0,152.0,152.0,152.0,152.0,152.0,152.0,152.0,151.0,151.0,151.0,151.0,151.0,152.0,152.0,153.0,154.0,155.0,155.0,156.0,157.0,157.0,158.0,159.0,159.0,160.0,161.0,161.0,162.0,162.0,163.0,164.0,164.0,165.0,166.0,166.0,167.0,167.0,168.0,169.0,169.0,170.0,171.0,171.0,172.0,173.0,174.0,174.0,175.0,176.0,176.0,177.0,178.0,179.0,180.0,180.0,181.0,182.0,183.0,184.0,184.0,185.0,186.0,187.0,187.0,188.0,188.0,189.0,190.0,191.0,192.0,193.0,193.0,194.0,195.0,196.0,197.0,198.0,199.0,199.0,200.0,201.0,202.0,203.0,204.0,205.0,206.0,207.0,208.0,209.0,209.0,211.0,211.0,212.0,213.0,214.0,215.0,216.0,217.0,218.0,220.0,221.0,222.0,223.0,224.0,226.0,227.0,227.0,229.0,230.0,231.0,232.0,234.0,235.0,236.0,237.0,238.0,240.0,242.0,244.0,246.0,247.0,248.0,249.0,249.0,250.0,251.0,254.0,255.0,1.0,3.0,5.0,5.0,7.0,7.0,7.0,7.0,7.0,7.0,7.0,7.0,7.0,7.0,7.0,5.0,7.0,7.0,7.0,7.0,7.0,7.0,7.0,7.0,7.0,0.0,0.0,0.0,173.0,0.0,3.0,5.0,7.0,9.0,0.0,0.0,0.0,0.0,3.0,0.0,0.0,0.0,0.0,0.0,0.0,0.0,0.0,0.0,0.0,169.0,169.0,0.0,0.0,0.0,0.0,0.0,0.0,0.0,0.0,0.0,0.0,0.0,0.0,0.0,87.0,87.0,89.0,87.0,89.0,89.0,89.0,85.0,87.0,89.0,89.0,0.0,0.0,0.0,0.0,0.0,0.0,0.0,91.0,91.0,0.0,89.0,0.0,87.0,89.0,91.0,93.0,0.0,0.0,0.0,89.0,89.0,0.0,0.0,89.0,89.0,91.0,0.0,0.0,91.0,89.0,89.0,87.0,87.0,87.0,87.0,87.0,85.0,85.0,85.0,87.0,87.0,87.0,85.0,87.0,87.0,87.0,87.0,87.0,85.0,85.0,83.0,83.0,83.0,85.0,85.0,85.0,83.0,83.0,83.0,81.0,81.0,83.0,83.0,85.0,85.0,85.0,83.0,83.0,83.0,83.0,83.0,83.0,83.0,83.0,81.0,81.0,81.0,81.0,83.0,81.0,81.0,81.0,81.0,81.0,81.0,83.0,83.0,83.0,83.0,85.0,87.0,0.0,131.0,130.0,128.0,123.0,120.0,120.0,120.0,120.0,120.0,120.0,120.0,120.0,120.0,120.0,120.0,120.0,119.0,119.0,119.0,119.0,119.0,119.0,119.0,119.0,119.0,119.0,119.0,119.0,119.0,119.0,119.0,119.0,119.0,119.0,118.0,118.0,118.0,118.0,118.0,119.0,118.0,118.0,118.0,118.0,118.0,118.0,118.0,118.0,118.0,118.0,118.0,118.0,118.0,118.0,118.0,118.0,118.0,117.0,117.0,117.0,117.0,117.0,117.0,117.0,117.0,117.0,117.0,117.0,117.0,117.0,117.0,117.0,117.0,117.0,117.0,117.0,117.0,116.0,116.0,116.0,116.0,116.0,116.0,116.0,116.0,116.0,116.0,116.0,116.0,116.0,116.0,116.0,116.0,116.0,116.0,116.0,115.0,115.0,115.0,115.0,115.0,115.0,115.0,115.0,115.0,115.0,115.0,115.0,115.0,115.0,115.0,115.0,115.0,115.0,115.0,115.0,115.0,115.0,115.0,114.0,114.0,114.0,114.0,114.0,114.0,114.0,114.0,114.0,114.0,114.0,114.0,114.0,114.0,114.0,114.0,114.0,114.0,114.0,114.0,114.0,113.0,113.0,113.0,113.0,113.0,113.0,113.0,113.0,113.0,113.0,113.0,113.0,113.0,113.0,113.0,113.0,113.0,113.0,112.0,113.0,112.0,112.0,112.0,112.0,112.0,112.0,112.0,112.0,112.0,112.0,112.0,111.0,111.0,112.0,112.0,111.0,111.0,111.0,111.0,111.0,111.0,111.0,111.0,111.0,111.0,110.0,110.0,110.0,110.0,110.0,110.0,110.0,110.0,110.0,0.0
0.0,155.0,155.0,155.0,154.0,153.0,153.0,154.0,154.0,153.0,153.0,153.0,153.0,153.0,153.0,154.0,153.0,153.0,153.0,153.0,152.0,152.0,152.0,153.0,153.0,152.0,151.0,151.0,152.0,151.0,151.0,151.0,151.0,152.0,152.0,153.0,153.0,154.0,154.0,155.0,156.0,157.0,158.0,158.0,158.0,159.0,160.0,161.0,162.0,162.0,162.0,163.0,164.0,164.0,165.0,166.0,166.0,167.0,167.0,168.0,169.0,170.0,171.0,171.0,172.0,172.0,173.0,174.0,174.0,175.0,176.0,176.0,177.0,178.0,179.0,180.0,180.0,181.0,182.0,183.0,184.0,184.0,185.0,186.0,187.0,187.0,188.0,188.0,189.0,190.0,191.0,192.0,193.0,193.0,194.0,195.0,196.0,197.0,198.0,198.0,199.0,200.0,201.0,202.0,203.0,204.0,204.0,205.0,207.0,208.0,208.0,209.0,210.0,211.0,212.0,213.0,215.0,216.0,217.0,217.0,218.0,220.0,221.0,222.0,223.0,224.0,226.0,227.0,228.0,229.0,230.0,231.0,232.0,234.0,236.0,236.0,237.0,238.0,240.0,242.0,244.0,246.0,246.0,247.0,248.0,249.0,250.0,252.0,254.0,255.0,1.0,3.0,3.0,5.0,7.0,7.0,7.0,7.0,7.0,7.0,7.0,7.0,7.0,7.0,7.0,7.0,7.0,7.0,7.0,7.0,7.0,7.0,9.0,9.0,0.0,0.0,0.0,173.0,175.0,5.0,5.0,5.0,5.0,7.0,0.0,0.0,0.0,5.0,5.0,5.0,5.0,5.0,5.0,5.0,3.0,3.0,5.0,7.0,0.0,0.0,169.0,0.0,0.0,87.0,0.0,89.0,0.0,0.0,0.0,0.0,0.0,0.0,0.0,87.0,0.0,89.0,87.0,89.0,89.0,87.0,89.0,87.0,87.0,87.0,87.0,89.0,87.0,87.0,87.0,87.0,85.0,87.0,89.0,91.0,91.0,91.0,89.0,89.0,91.0,0.0,89.0,0.0,89.0,87.0,87.0,89.0,87.0,91.0,89.0,91.0,91.0,89.0,89.0,89.0,89.0,89.0,89.0,89.0,89.0,87.0,87.0,87.0,87.0,87.0,87.0,87.0,87.0,87.0,87.0,87.0,87.0,87.0,87.0,85.0,85.0,85.0,85.0,85.0,85.0,85.0,85.0,85.0,85.0,85.0,85.0,83.0,85.0,85.0,85.0,85.0,85.0,83.0,83.0,83.0,83.0,83.0,83.0,83.0,83.0,83.0,81.0,83.0,83.0,83.0,83.0,81.0,81.0,81.0,81.0,81.0,81.0,81.0,83.0,83.0,85.0,87.0,0.0,0.0,130.0,128.0,123.0,120.0,120.0,120.0,120.0,120.0,120.0,120.0,120.0,120.0,120.0,120.0,119.0,119.0,119.0,119.0,119.0,119.0,119.0,119.0,119.0,119.0,119.0,119.0,119.0,119.0,119.0,119.0,119.0,119.0,119.0,118.0,118.0,118.0,118.0,118.0,118.0,118.0,118.0,118.0,118.0,118.0,118.0,118.0,118.0,118.0,118.0,118.0,118.0,118.0,118.0,118.0,118.0,118.0,117.0,117.0,117.0,117.0,117.0,117.0,117.0,117.0,117.0,117.0,117.0,117.0,117.0,117.0,117.0,117.0,117.0,117.0,117.0,117.0,116.0,116.0,116.0,117.0,116.0,116.0,116.0,116.0,116.0,116.0,116.0,116.0,116.0,116.0,116.0,116.0,116.0,116.0,116.0,115.0,115.0,115.0,115.0,115.0,115.0,115.0,115.0,115.0,115.0,115.0,115.0,115.0,115.0,115.0,115.0,115.0,115.0,115.0,115.0,115.0,115.0,115.0,115.0,114.0,114.0,114.0,114.0,114.0,114.0,114.0,114.0,114.0,114.0,114.0,114.0,114.0,114.0,114.0,114.0,114.0,114.0,114.0,113.0,113.0,113.0,113.0,113.0,113.0,113.0,113.0,113.0,113.0,113.0,113.0,113.0,113.0,113.0,113.0,113.0,113.0,113.0,113.0,112.0,112.0,113.0,112.0,112.0,112.0,112.0,112.0,112.0,112.0,112.0,112.0,112.0,112.0,112.0,112.0,111.0,111.0,111.0,111.0,111.0,111.0,111.0,111.0,111.0,111.0,110.0,110.0,110.0,110.0,111.0,110.0,110.0,110.0,110.0,0.0
0.0,155.0,154.0,153.0,153.0,153.0,153.0,153.0,154.0,154.0,154.0,154.0,153.0,153.0,153.0,153.0,153.0,153.0,153.0,152.0,152.0,152.0,152.0,152.0,152.0,151.0,151.0,151.0,151.0,151.0,151.0,151.0,151.0,152.0,153.0,153.0,154.0,154.0,154.0,155.0,156.0,157.0,157.0,158.0,158.0,159.0,160.0,161.0,161.0,162.0,162.0,163.0,163.0,164.0,165.0,166.0,166.0,167.0,167.0,168.0,169.0,170.0,171.0,171.0,172.0,172.0,173.0,173.0,174.0,175.0,176.0,177.0,177.0,178.0,179.0,180.0,180.0,181.0,182.0,183.0,184.0,184.0,185.0,186.0,187.0,187.0,188.0,188.0,189.0,190.0,191.0,192.0,193.0,193.0,194.0,195.0,196.0,197.0,197.0,198.0,199.0,200.0,201.0,202.0,203.0,204.0,205.0,205.0,207.0,207.0,209.0,209.0,210.0,211.0,212.0,213.0,214.0,216.0,216.0,217.0,218.0,220.0,221.0,222.0,223.0,224.0,226.0,227.0,229.0,229.0,230.0,231.0,232.0,234.0,235.0,236.0,237.0,238.0,240.0,242.0,243.0,244.0,245.0,247.0,248.0,249.0,250.0,252.0,254.0,255.0,1.0,3.0,3.0,5.0,7.0,7.0,7.0,7.0,7.0,7.0,7.0,7.0,7.0,7.0,7.0,7.0,7.0,7.0,7.0,7.0,7.0,9.0,11.0,0.0,0.0,0.0,172.0,172.0,0.0,5.0,5.0,5.0,5.0,5.0,5.0,0.0,0.0,5.0,5.0,5.0,5.0,5.0,5.0,3.0,3.0,3.0,5.0,9.0,0.0,0.0,0.0,0.0,0.0,0.0,89.0,93.0,93.0,0.0,93.0,0.0,95.0,91.0,89.0,87.0,89.0,89.0,91.0,89.0,87.0,89.0,89.0,89.0,89.0,87.0,89.0,87.0,89.0,87.0,87.0,87.0,87.0,89.0,89.0,89.0,91.0,93.0,89.0,89.0,89.0,89.0,89.0,89.0,89.0,89.0,87.0,89.0,89.0,89.0,89.0,91.0,91.0,89.0,89.0,89.0,89.0,89.0,89.0,89.0,89.0,87.0,87.0,87.0,89.0,87.0,87.0,87.0,87.0,87.0,87.0,87.0,87.0,87.0,87.0,87.0,87.0,85.0,85.0,85.0,85.0,85.0,85.0,85.0,85.0,85.0,85.0,85.0,85.0,85.0,85.0,85.0,85.0,83.0,83.0,83.0,83.0,83.0,83.0,83.0,83.0,83.0,83.0,83.0,83.0,83.0,83.0,81.0,81.0,81.0,81.0,81.0,81.0,81.0,81.0,83.0,83.0,85.0,87.0,0.0,130.0,128.0,123.0,120.0,120.0,120.0,120.0,120.0,120.0,120.0,120.0,120.0,120.0,119.0,119.0,119.0,119.0,119.0,119.0,119.0,119.0,119.0,119.0,119.0,119.0,119.0,119.0,119.0,119.0,119.0,119.0,119.0,118.0,118.0,118.0,118.0,118.0,118.0,118.0,118.0,118.0,118.0,118.0,118.0,118.0,118.0,118.0,118.0,118.0,118.0,118.0,118.0,118.0,118.0,118.0,118.0,117.0,117.0,117.0,117.0,117.0,117.0,117.0,117.0,117.0,117.0,117.0,117.0,117.0,117.0,117.0,117.0,117.0,117.0,117.0,117.0,116.0,116.0,116.0,116.0,116.0,116.0,116.0,116.0,116.0,116.0,116.0,116.0,116.0,116.0,116.0,116.0,116.0,116.0,116.0,116.0,116.0,116.0,116.0,115.0,115.0,115.0,115.0,115.0,115.0,115.0,115.0,115.0,115.0,115.0,115.0,115.0,115.0,115.0,115.0,115.0,115.0,115.0,115.0,114.0,114.0,114.0,114.0,114.0,114.0,114.0,114.0,114.0,114.0,114.0,114.0,114.0,114.0,114.0,114.0,114.0,114.0,114.0,113.0,113.0,113.0,113.0,113.0,113.0,113.0,113.0,113.0,113.0,113.0,113.0,113.0,113.0,113.0,113.0,113.0,113.0,113.0,113.0,112.0,112.0,112.0,112.0,112.0,112.0,112.0,112.0,112.0,112.0,112.0,112.0,112.0,112.0,112.0,111.0,111.0,111.0,111.0,111.0,111.0,111.0,111.0,111.0,111.0,111.0,111.0,111.0,110.0,110.0,111.0,110.0,110.0,110.0,110.0,0.0
0.0,155.0,154.0,153.0,153.0,153.0,153.0,153.0,154.0,154.0,154.0,154.0,154.0,153.0,153.0,153.0,153.0,153.0,153.0,152.0,152.0,152.0,152.0,151.0,151.0,151.0,151.0,151.0,151.0,151.0,151.0,151.0,151.0,152.0,153.0,154.0,154.0,154.0,155.0,155.0,156.0,157.0,157.0,158.0,158.0,159.0,160.0,161.0,161.0,162.0,162.0,163.0,163.0,164.0,165.0,166.0,166.0,167.0,167.0,168.0,169.0,170.0,171.0,171.0,171.0,172.0,173.0,174.0,174.0,175.0,176.0,177.0,177.0,178.0,179.0,179.0,180.0,181.0,182.0,182.0,183.0,184.0,185.0,186.0,186.0,187.0,188.0,189.0,189.0,190.0,191.0,192.0,193.0,194.0,194.0,195.0,196.0,197.0,198.0,199.0,200.0,201.0,202.0,203.0,203.0,204.0,205.0,206.0,207.0,208.0,209.0,209.0,210.0,211.0,212.0,213.0,214.0,216.0,217.0,217.0,218.0,219.0,221.0,222.0,223.0,224.0,226.0,227.0,228.0,230.0,230.0,231.0,232.0,233.0,236.0,236.0,237.0,239.0,240.0,242.0,243.0,244.0,245.0,246.0,247.0,249.0,251.0,252.0,254.0,255.0,1.0,3.0,3.0,5.0,7.0,7.0,7.0,7.0,7.0,7.0,9.0,9.0,9.0,7.0,7.0,7.0,7.0,7.0,7.0,7.0,7.0,9.0,11.0,0.0,0.0,171.0,171.0,0.0,0.0,5.0,5.0,5.0,5.0,5.0,5.0,5.0,5.0,5.0,5.0,5.0,5.0,5.0,5.0,3.0,3.0,3.0,5.0,7.0,0.0,0.0,0.0,0.0,0.0,0.0,87.0,93.0,93.0,91.0,95.0,93.0,93.0,91.0,87.0,87.0,89.0,89.0,89.0,89.0,89.0,89.0,89.0,91.0,89.0,89.0,87.0,87.0,89.0,89.0,89.0,87.0,87.0,89.0,89.0,89.0,89.0,89.0,89.0,89.0,89.0,87.0,89.0,89.0,89.0,89.0,87.0,89.0,89.0,89.0,89.0,89.0,89.0,89.0,89.0,89.0,89.0,89.0,89.0,89.0,89.0,87.0,87.0,89.0,87.0,89.0,87.0,87.0,87.0,87.0,87.0,87.0,87.0,87.0,87.0,87.0,87.0,87.0,85.0,85.0,85.0,85.0,85.0,85.0,85.0,85.0,85.0,85.0,85.0,85.0,85.0,85.0,83.0,83.0,83.0,83.0,83.0,83.0,83.0,83.0,83.0,83.0,83.0,83.0,81.0,83.0,83.0,83.0,81.0,81.0,81.0,81.0,81.0,81.0,81.0,83.0,83.0,85.0,87.0,0.0,130.0,128.0,123.0,120.0,120.0,120.0,120.0,120.0,120.0,120.0,120.0,120.0,119.0,119.0,119.0,119.0,119.0,119.0,119.0,119.0,119.0,119.0,119.0,119.0,119.0,119.0,119.0,119.0,119.0,119.0,119.0,119.0,118.0,118.0,118.0,118.0,118.0,118.0,118.0,118.0,118.0,118.0,118.0,118.0,118.0,118.0,118.0,118.0,118.0,118.0,118.0,118.0,118.0,118.0,118.0,118.0,117.0,117.0,117.0,117.0,117.0,117.0,117.0,117.0,117.0,117.0,117.0,117.0,117.0,117.0,117.0,117.0,117.0,117.0,117.0,117.0,117.0,116.0,116.0,116.0,116.0,116.0,116.0,116.0,116.0,116.0,116.0,116.0,116.0,116.0,116.0,116.0,116.0,116.0,116.0,116.0,116.0,116.0,116.0,115.0,115.0,115.0,115.0,115.0,115.0,115.0,115.0,115.0,115.0,115.0,115.0,115.0,115.0,115.0,115.0,115.0,115.0,115.0,114.0,114.0,114.0,115.0,114.0,114.0,114.0,114.0,114.0,114.0,114.0,114.0,114.0,114.0,114.0,114.0,114.0,114.0,113.0,113.0,113.0,113.0,113.0,113.0,113.0,113.0,113.0,113.0,113.0,113.0,113.0,113.0,113.0,113.0,113.0,113.0,113.0,113.0,113.0,113.0,112.0,112.0,112.0,112.0,112.0,112.0,112.0,112.0,112.0,112.0,112.0,112.0,112.0,112.0,112.0,111.0,111.0,111.0,111.0,111.0,111.0,111.0,111.0,111.0,111.0,111.0,111.0,111.0,111.0,110.0,111.0,110.0,110.0,110.0,110.0,0.0
0.0,156.0,155.0,154.0,154.0,153.0,154.0,153.0,153.0,152.0,152.0,153.0,153.0,153.0,153.0,153.0,152.0,152.0,152.0,152.0,152.0,152.0,151.0,151.0,151.0,151.0,152.0,151.0,151.0,151.0,151.0,151.0,151.0,152.0,153.0,153.0,154.0,154.0,155.0,155.0,156.0,156.0,157.0,158.0,158.0,159.0,160.0,160.0,161.0,161.0,162.0,163.0,163.0,164.0,165.0,165.0,166.0,166.0,167.0,168.0,169.0,170.0,171.0,171.0,171.0,172.0,173.0,174.0,174.0,175.0,176.0,177.0,177.0,178.0,179.0,179.0,180.0,181.0,182.0,182.0,183.0,184.0,185.0,186.0,186.0,187.0,187.0,188.0,189.0,190.0,191.0,192.0,193.0,194.0,194.0,195.0,196.0,197.0,198.0,199.0,200.0,201.0,202.0,203.0,203.0,204.0,205.0,206.0,207.0,208.0,209.0,210.0,210.0,211.0,212.0,213.0,215.0,216.0,217.0,217.0,219.0,220.0,221.0,222.0,223.0,224.0,226.0,227.0,228.0,229.0,231.0,231.0,232.0,234.0,235.0,236.0,237.0,239.0,241.0,242.0,243.0,244.0,244.0,246.0,247.0,249.0,251.0,252.0,253.0,255.0,1.0,3.0,5.0,5.0,5.0,7.0,7.0,7.0,7.0,7.0,7.0,9.0,7.0,7.0,7.0,7.0,7.0,7.0,7.0,7.0,9.0,9.0,0.0,0.0,0.0,170.0,0.0,0.0,5.0,5.0,5.0,5.0,5.0,5.0,5.0,5.0,5.0,5.0,5.0,5.0,5.0,5.0,5.0,3.0,3.0,3.0,5.0,7.0,0.0,0.0,0.0,0.0,0.0,0.0,91.0,91.0,0.0,0.0,93.0,95.0,91.0,91.0,87.0,89.0,87.0,87.0,89.0,89.0,89.0,89.0,89.0,89.0,89.0,89.0,89.0,89.0,89.0,89.0,89.0,87.0,87.0,89.0,89.0,91.0,89.0,89.0,89.0,89.0,89.0,89.0,89.0,89.0,89.0,89.0,87.0,89.0,87.0,89.0,89.0,89.0,89.0,89.0,89.0,89.0,89.0,89.0,89.0,89.0,89.0,87.0,89.0,89.0,89.0,87.0,87.0,87.0,87.0,87.0,87.0,87.0,87.0,85.0,85.0,85.0,87.0,85.0,85.0,85.0,85.0,85.0,85.0,85.0,85.0,85.0,85.0,85.0,85.0,85.0,85.0,85.0,83.0,83.0,83.0,83.0,83.0,83.0,83.0,83.0,83.0,83.0,83.0,83.0,83.0,83.0,83.0,81.0,81.0,81.0,81.0,81.0,81.0,81.0,81.0,81.0,83.0,85.0,87.0,0.0,130.0,128.0,123.0,120.0,120.0,120.0,120.0,120.0,120.0,120.0,120.0,120.0,119.0,119.0,119.0,119.0,119.0,119.0,119.0,119.0,119.0,119.0,119.0,119.0,119.0,119.0,119.0,119.0,119.0,119.0,119.0,119.0,119.0,118.0,118.0,118.0,118.0,118.0,118.0,118.0,118.0,118.0,118.0,118.0,118.0,118.0,118.0,118.0,118.0,118.0,118.0,118.0,118.0,118.0,118.0,118.0,117.0,117.0,117.0,117.0,117.0,117.0,117.0,117.0,117.0,117.0,117.0,117.0,117.0,117.0,117.0,117.0,117.0,117.0,117.0,117.0,116.0,116.0,116.0,116.0,116.0,116.0,116.0,116.0,116.0,116.0,116.0,116.0,116.0,116.0,116.0,116.0,116.0,116.0,116.0,116.0,116.0,116.0,116.0,115.0,115.0,115.0,115.0,115.0,115.0,115.0,115.0,115.0,115.0,115.0,115.0,115.0,115.0,115.0,115.0,114.0,115.0,115.0,115.0,114.0,114.0,114.0,114.0,114.0,114.0,114.0,114.0,114.0,114.0,114.0,114.0,114.0,114.0,114.0,114.0,114.0,113.0,113.0,113.0,113.0,113.0,113.0,113.0,113.0,113.0,113.0,113.0,113.0,113.0,113.0,113.0,113.0,113.0,113.0,112.0,112.0,112.0,112.0,112.0,112.0,112.0,112.0,112.0,112.0,112.0,112.0,112.0,112.0,112.0,112.0,112.0,112.0,111.0,111.0,111.0,111.0,111.0,111.0,111.0,111.0,111.0,111.0,111.0,111.0,111.0,111.0,111.0,110.0,110.0,110.0,110.0,110.0,110.0,0.0
0.0,156.0,155.0,154.0,153.0,153.0,153.0,153.0,153.0,152.0,153.0,153.0,153.0,153.0,153.0,153.0,153.0,152.0,152.0,152.0,152.0,151.0,151.0,152.0,152.0,152.0,152.0,152.0,151.0,151.0,151.0,151.0,151.0,152.0,153.0,153.0,153.0,154.0,155.0,155.0,156.0,157.0,157.0,158.0,158.0,159.0,160.0,160.0,161.0,161.0,162.0,163.0,163.0,164.0,165.0,165.0,166.0,166.0,167.0,168.0,170.0,170.0,171.0,171.0,171.0,172.0,173.0,174.0,174.0,175.0,176.0,177.0,177.0,178.0,179.0,179.0,180.0,181.0,182.0,183.0,183.0,184.0,185.0,186.0,187.0,187.0,187.0,188.0,189.0,190.0,191.0,192.0,193.0,194.0,195.0,195.0,196.0,197.0,198.0,199.0,200.0,201.0,202.0,203.0,204.0,205.0,206.0,207.0,207.0,208.0,209.0,210.0,210.0,211.0,213.0,214.0,215.0,216.0,217.0,218.0,219.0,220.0,221.0,222.0,223.0,225.0,225.0,227.0,228.0,229.0,230.0,231.0,232.0,234.0,235.0,236.0,238.0,239.0,241.0,242.0,243.0,244.0,245.0,246.0,248.0,249.0,251.0,252.0,253.0,255.0,1.0,3.0,5.0,5.0,7.0,7.0,7.0,7.0,7.0,7.0,7.0,7.0,7.0,7.0,7.0,7.0,7.0,7.0,7.0,9.0,9.0,0.0,0.0,0.0,0.0,0.0,0.0,0.0,5.0,5.0,5.0,5.0,7.0,7.0,7.0,7.0,5.0,5.0,5.0,5.0,5.0,5.0,5.0,5.0,5.0,5.0,5.0,7.0,11.0,0.0,0.0,0.0,0.0,91.0,93.0,93.0,0.0,0.0,91.0,91.0,91.0,89.0,91.0,87.0,87.0,89.0,89.0,89.0,89.0,87.0,89.0,89.0,89.0,89.0,87.0,89.0,89.0,89.0,89.0,89.0,89.0,89.0,89.0,89.0,91.0,91.0,89.0,89.0,89.0,89.0,89.0,89.0,89.0,89.0,89.0,0.0,0.0,89.0,91.0,89.0,89.0,89.0,89.0,89.0,89.0,89.0,89.0,89.0,89.0,89.0,89.0,89.0,89.0,87.0,87.0,87.0,87.0,87.0,87.0,87.0,85.0,85.0,85.0,87.0,87.0,87.0,85.0,85.0,85.0,85.0,85.0,85.0,85.0,85.0,85.0,85.0,85.0,85.0,85.0,85.0,83.0,83.0,83.0,83.0,83.0,83.0,83.0,83.0,83.0,83.0,83.0,83.0,83.0,81.0,83.0,81.0,81.0,81.0,81.0,81.0,81.0,81.0,81.0,81.0,83.0,85.0,87.0,0.0,130.0,128.0,123.0,121.0,120.0,120.0,120.0,120.0,120.0,120.0,120.0,119.0,119.0,119.0,119.0,119.0,119.0,119.0,119.0,119.0,119.0,119.0,119.0,119.0,119.0,119.0,119.0,119.0,119.0,119.0,118.0,119.0,119.0,118.0,118.0,118.0,118.0,118.0,118.0,118.0,118.0,118.0,118.0,118.0,118.0,118.0,118.0,118.0,118.0,118.0,118.0,118.0,118.0,118.0,118.0,118.0,117.0,117.0,117.0,117.0,117.0,117.0,117.0,117.0,117.0,117.0,117.0,117.0,117.0,117.0,117.0,117.0,116.0,117.0,117.0,116.0,116.0,116.0,116.0,116.0,116.0,116.0,116.0,116.0,116.0,116.0,116.0,116.0,116.0,116.0,116.0,116.0,116.0,116.0,116.0,115.0,115.0,115.0,115.0,115.0,115.0,115.0,115.0,115.0,115.0,115.0,115.0,115.0,115.0,115.0,115.0,115.0,115.0,115.0,115.0,114.0,114.0,115.0,114.0,115.0,114.0,114.0,114.0,114.0,114.0,114.0,114.0,114.0,114.0,114.0,114.0,114.0,114.0,114.0,114.0,113.0,113.0,113.0,113.0,113.0,113.0,113.0,113.0,113.0,113.0,113.0,113.0,113.0,113.0,113.0,113.0,113.0,113.0,113.0,112.0,112.0,112.0,112.0,112.0,112.0,112.0,112.0,112.0,112.0,112.0,112.0,112.0,112.0,112.0,112.0,112.0,112.0,112.0,111.0,111.0,111.0,111.0,111.0,111.0,112.0,111.0,111.0,111.0,111.0,111.0,111.0,111.0,111.0,111.0,110.0,110.0,110.0,110.0,0.0
0.0,155.0,154.0,154.0,154.0,153.0,153.0,153.0,153.0,152.0,153.0,153.0,153.0,153.0,153.0,153.0,152.0,152.0,152.0,152.0,152.0,152.0,152.0,153.0,153.0,152.0,152.0,152.0,151.0,151.0,151.0,151.0,151.0,152.0,152.0,153.0,153.0,154.0,155.0,156.0,156.0,156.0,157.0,158.0,158.0,159.0,159.0,160.0,160.0,161.0,162.0,163.0,163.0,164.0,165.0,165.0,166.0,166.0,167.0,168.0,169.0,170.0,171.0,171.0,171.0,172.0,173.0,174.0,175.0,175.0,176.0,177.0,177.0,179.0,179.0,180.0,181.0,182.0,182.0,183.0,184.0,185.0,185.0,186.0,187.0,187.0,187.0,188.0,189.0,190.0,191.0,192.0,193.0,194.0,195.0,195.0,196.0,197.0,198.0,199.0,200.0,201.0,202.0,203.0,203.0,205.0,206.0,207.0,207.0,208.0,209.0,210.0,210.0,212.0,213.0,214.0,214.0,215.0,217.0,217.0,219.0,220.0,221.0,222.0,223.0,224.0,225.0,226.0,228.0,229.0,230.0,231.0,232.0,233.0,235.0,237.0,238.0,239.0,241.0,242.0,242.0,243.0,244.0,246.0,248.0,249.0,251.0,252.0,253.0,255.0,1.0,3.0,5.0,5.0,7.0,7.0,7.0,7.0,7.0,7.0,7.0,7.0,7.0,7.0,7.0,7.0,7.0,7.0,9.0,9.0,11.0,0.0,0.0,0.0,169.0,0.0,0.0,5.0,5.0,5.0,5.0,7.0,7.0,7.0,7.0,5.0,5.0,5.0,5.0,5.0,5.0,5.0,5.0,5.0,5.0,5.0,5.0,5.0,0.0,0.0,0.0,0.0,0.0,0.0,0.0,0.0,91.0,87.0,0.0,89.0,0.0,91.0,89.0,89.0,89.0,89.0,89.0,89.0,89.0,89.0,89.0,89.0,89.0,89.0,89.0,89.0,89.0,87.0,89.0,89.0,89.0,89.0,89.0,89.0,91.0,91.0,89.0,89.0,89.0,89.0,91.0,89.0,89.0,89.0,89.0,89.0,91.0,89.0,91.0,91.0,89.0,89.0,89.0,89.0,89.0,89.0,89.0,89.0,89.0,89.0,89.0,89.0,89.0,89.0,87.0,87.0,87.0,87.0,87.0,87.0,87.0,87.0,87.0,87.0,87.0,87.0,85.0,85.0,85.0,85.0,85.0,85.0,85.0,85.0,85.0,85.0,85.0,85.0,85.0,83.0,83.0,83.0,83.0,83.0,83.0,83.0,83.0,83.0,83.0,83.0,83.0,83.0,83.0,83.0,83.0,81.0,81.0,81.0,81.0,81.0,81.0,81.0,81.0,81.0,83.0,85.0,87.0,0.0,130.0,128.0,124.0,120.0,120.0,120.0,120.0,120.0,120.0,120.0,120.0,119.0,119.0,119.0,119.0,119.0,119.0,119.0,119.0,119.0,119.0,119.0,119.0,119.0,119.0,119.0,119.0,119.0,119.0,118.0,118.0,118.0,119.0,118.0,118.0,118.0,118.0,118.0,118.0,118.0,118.0,118.0,118.0,118.0,118.0,118.0,118.0,118.0,118.0,118.0,118.0,118.0,118.0,118.0,118.0,117.0,117.0,117.0,117.0,117.0,117.0,117.0,117.0,117.0,117.0,117.0,117.0,117.0,117.0,117.0,117.0,117.0,117.0,116.0,116.0,116.0,116.0,116.0,116.0,116.0,116.0,116.0,116.0,116.0,116.0,116.0,116.0,116.0,116.0,116.0,116.0,116.0,116.0,115.0,115.0,115.0,115.0,115.0,115.0,115.0,115.0,115.0,115.0,115.0,115.0,115.0,115.0,115.0,115.0,115.0,115.0,115.0,115.0,115.0,115.0,114.0,114.0,115.0,115.0,115.0,114.0,114.0,114.0,114.0,114.0,114.0,114.0,114.0,114.0,114.0,114.0,114.0,114.0,114.0,114.0,114.0,113.0,113.0,113.0,113.0,113.0,113.0,113.0,113.0,113.0,113.0,113.0,113.0,113.0,113.0,113.0,113.0,113.0,113.0,113.0,112.0,112.0,112.0,112.0,112.0,112.0,112.0,112.0,112.0,112.0,112.0,112.0,112.0,112.0,112.0,111.0,112.0,111.0,111.0,111.0,111.0,111.0,111.0,111.0,111.0,111.0,111.0,111.0,111.0,111.0,111.0,111.0,111.0,111.0,111.0,110.0,110.0,110.0,0.0
0.0,154.0,154.0,154.0,155.0,153.0,153.0,152.0,153.0,153.0,154.0,153.0,153.0,153.0,153.0,153.0,153.0,153.0,153.0,152.0,152.0,152.0,152.0,152.0,152.0,151.0,151.0,151.0,151.0,151.0,151.0,151.0,151.0,152.0,152.0,153.0,154.0,154.0,155.0,156.0,156.0,157.0,157.0,158.0,158.0,159.0,159.0,160.0,161.0,162.0,163.0,163.0,164.0,165.0,165.0,165.0,166.0,166.0,167.0,168.0,169.0,170.0,171.0,171.0,172.0,172.0,173.0,174.0,174.0,175.0,176.0,177.0,178.0,178.0,179.0,180.0,181.0,181.0,182.0,183.0,184.0,185.0,185.0,186.0,187.0,187.0,188.0,188.0,189.0,190.0,191.0,192.0,192.0,193.0,194.0,195.0,196.0,197.0,198.0,199.0,200.0,201.0,202.0,203.0,204.0,204.0,205.0,206.0,207.0,209.0,209.0,210.0,211.0,212.0,213.0,213.0,214.0,215.0,217.0,217.0,219.0,220.0,222.0,222.0,223.0,224.0,225.0,226.0,228.0,229.0,230.0,231.0,232.0,233.0,236.0,237.0,237.0,238.0,240.0,241.0,242.0,243.0,245.0,247.0,248.0,249.0,251.0,252.0,254.0,255.0,1.0,3.0,3.0,5.0,7.0,7.0,7.0,7.0,7.0,7.0,7.0,7.0,7.0,7.0,7.0,7.0,7.0,7.0,9.0,11.0,0.0,0.0,0.0,169.0,0.0,0.0,0.0,5.0,5.0,7.0,7.0,7.0,7.0,7.0,5.0,5.0,5.0,5.0,5.0,5.0,5.0,5.0,5.0,5.0,5.0,5.0,5.0,5.0,7.0,0.0,0.0,0.0,0.0,0.0,93.0,91.0,89.0,87.0,89.0,0.0,91.0,89.0,91.0,89.0,89.0,89.0,89.0,89.0,89.0,89.0,91.0,89.0,89.0,89.0,89.0,89.0,89.0,89.0,89.0,89.0,89.0,89.0,89.0,89.0,89.0,91.0,89.0,89.0,89.0,89.0,89.0,89.0,89.0,89.0,89.0,91.0,89.0,91.0,91.0,89.0,89.0,89.0,89.0,89.0,89.0,89.0,89.0,89.0,89.0,87.0,87.0,87.0,87.0,89.0,87.0,89.0,87.0,87.0,87.0,87.0,87.0,87.0,87.0,85.0,87.0,85.0,85.0,85.0,85.0,85.0,85.0,85.0,85.0,85.0,85.0,83.0,85.0,83.0,83.0,83.0,83.0,83.0,83.0,83.0,83.0,83.0,83.0,83.0,83.0,81.0,83.0,83.0,83.0,81.0,81.0,81.0,81.0,81.0,81.0,81.0,81.0,81.0,81.0,81.0,83.0,83.0,87.0,0.0,129.0,128.0,124.0,120.0,120.0,120.0,120.0,120.0,120.0,120.0,119.0,120.0,119.0,119.0,119.0,119.0,119.0,119.0,119.0,119.0,119.0,119.0,119.0,119.0,119.0,119.0,119.0,119.0,119.0,118.0,118.0,118.0,118.0,118.0,118.0,118.0,118.0,118.0,118.0,118.0,118.0,118.0,118.0,118.0,118.0,118.0,118.0,118.0,118.0,118.0,118.0,118.0,118.0,117.0,118.0,117.0,117.0,117.0,117.0,117.0,117.0,117.0,117.0,117.0,117.0,117.0,117.0,117.0,117.0,117.0,117.0,117.0,117.0,116.0,116.0,116.0,116.0,116.0,116.0,116.0,116.0,116.0,116.0,116.0,116.0,116.0,116.0,116.0,116.0,116.0,116.0,116.0,115.0,115.0,115.0,115.0,115.0,115.0,115.0,115.0,115.0,115.0,115.0,115.0,115.0,115.0,115.0,115.0,115.0,115.0,115.0,115.0,115.0,115.0,115.0,115.0,114.0,115.0,114.0,114.0,114.0,114.0,114.0,114.0,114.0,114.0,114.0,114.0,114.0,114.0,114.0,114.0,114.0,114.0,113.0,113.0,113.0,113.0,113.0,113.0,113.0,113.0,113.0,113.0,113.0,113.0,113.0,113.0,113.0,113.0,113.0,113.0,113.0,113.0,113.0,112.0,112.0,112.0,112.0,112.0,112.0,112.0,112.0,112.0,112.0,112.0,112.0,112.0,112.0,112.0,111.0,111.0,111.0,111.0,111.0,111.0,111.0,112.0,111.0,111.0,111.0,111.0,111.0,111.0,111.0,111.0,111.0,111.0,111.0,110.0,110.0,110.0,110.0,0.0
0.0,154.0,154.0,154.0,155.0,153.0,153.0,152.0,152.0,153.0,153.0,152.0,153.0,153.0,153.0,152.0,153.0,153.0,152.0,152.0,152.0,151.0,151.0,151.0,151.0,151.0,151.0,150.0,150.0,151.0,151.0,151.0,151.0,152.0,153.0,153.0,154.0,154.0,155.0,156.0,156.0,157.0,157.0,158.0,158.0,159.0,159.0,160.0,161.0,162.0,163.0,163.0,164.0,165.0,165.0,165.0,166.0,167.0,167.0,168.0,169.0,170.0,171.0,171.0,172.0,172.0,173.0,174.0,175.0,175.0,176.0,177.0,178.0,179.0,179.0,180.0,181.0,181.0,182.0,183.0,184.0,184.0,185.0,186.0,187.0,187.0,188.0,189.0,189.0,190.0,191.0,192.0,192.0,193.0,194.0,195.0,196.0,197.0,197.0,198.0,200.0,201.0,202.0,203.0,203.0,204.0,205.0,206.0,207.0,209.0,210.0,210.0,211.0,212.0,212.0,213.0,214.0,215.0,217.0,218.0,219.0,220.0,221.0,222.0,223.0,225.0,226.0,227.0,228.0,229.0,230.0,232.0,233.0,234.0,235.0,236.0,237.0,238.0,239.0,240.0,241.0,243.0,245.0,246.0,247.0,249.0,251.0,253.0,254.0,255.0,1.0,3.0,3.0,5.0,7.0,7.0,7.0,7.0,7.0,7.0,7.0,7.0,7.0,7.0,7.0,7.0,7.0,7.0,9.0,11.0,0.0,0.0,0.0,168.0,0.0,0.0,5.0,7.0,5.0,5.0,5.0,5.0,5.0,5.0,5.0,5.0,5.0,5.0,5.0,5.0,5.0,5.0,5.0,5.0,5.0,5.0,5.0,5.0,0.0,0.0,0.0,87.0,0.0,0.0,0.0,0.0,89.0,89.0,89.0,93.0,91.0,89.0,91.0,91.0,89.0,89.0,89.0,89.0,89.0,89.0,91.0,89.0,89.0,89.0,89.0,89.0,89.0,89.0,89.0,89.0,87.0,87.0,87.0,87.0,89.0,89.0,89.0,87.0,89.0,89.0,89.0,89.0,89.0,89.0,89.0,89.0,89.0,89.0,89.0,89.0,89.0,89.0,89.0,89.0,87.0,87.0,87.0,87.0,87.0,87.0,87.0,87.0,87.0,87.0,87.0,87.0,87.0,87.0,85.0,85.0,85.0,85.0,85.0,85.0,85.0,85.0,85.0,85.0,85.0,85.0,85.0,85.0,83.0,83.0,83.0,83.0,83.0,83.0,83.0,83.0,83.0,81.0,81.0,81.0,83.0,83.0,83.0,81.0,81.0,81.0,83.0,83.0,83.0,83.0,81.0,83.0,81.0,81.0,81.0,81.0,81.0,81.0,81.0,81.0,81.0,83.0,85.0,0.0,130.0,128.0,124.0,120.0,120.0,120.0,120.0,120.0,120.0,120.0,120.0,120.0,119.0,119.0,119.0,119.0,119.0,119.0,119.0,119.0,119.0,119.0,119.0,119.0,119.0,119.0,119.0,119.0,119.0,119.0,118.0,118.0,118.0,118.0,118.0,118.0,118.0,118.0,118.0,118.0,118.0,118.0,118.0,118.0,118.0,118.0,118.0,118.0,118.0,118.0,118.0,118.0,118.0,118.0,118.0,117.0,117.0,117.0,117.0,117.0,117.0,117.0,117.0,117.0,117.0,117.0,117.0,117.0,117.0,117.0,117.0,117.0,117.0,116.0,116.0,116.0,116.0,116.0,116.0,116.0,116.0,116.0,116.0,116.0,116.0,116.0,116.0,116.0,116.0,116.0,116.0,116.0,116.0,115.0,115.0,115.0,115.0,115.0,115.0,115.0,115.0,115.0,115.0,115.0,115.0,115.0,115.0,115.0,115.0,115.0,115.0,115.0,115.0,115.0,115.0,115.0,115.0,114.0,114.0,114.0,114.0,114.0,114.0,114.0,114.0,114.0,114.0,114.0,114.0,114.0,114.0,114.0,113.0,113.0,113.0,113.0,113.0,113.0,113.0,113.0,113.0,113.0,113.0,113.0,113.0,113.0,113.0,113.0,113.0,113.0,113.0,113.0,113.0,112.0,113.0,112.0,112.0,112.0,112.0,112.0,112.0,112.0,112.0,112.0,112.0,112.0,112.0,112.0,112.0,112.0,112.0,111.0,111.0,111.0,111.0,111.0,111.0,111.0,111.0,111.0,111.0,111.0,111.0,111.0,111.0,111.0,111.0,111.0,111.0,110.0,110.0,110.0,110.0,0.0
0.0,154.0,154.0,153.0,153.0,153.0,153.0,152.0,152.0,153.0,152.0,152.0,153.0,153.0,153.0,152.0,153.0,153.0,152.0,152.0,152.0,151.0,151.0,151.0,151.0,151.0,151.0,150.0,150.0,150.0,151.0,151.0,151.0,152.0,153.0,154.0,154.0,155.0,155.0,156.0,156.0,157.0,157.0,158.0,159.0,159.0,160.0,160.0,162.0,163.0,163.0,164.0,164.0,165.0,165.0,165.0,166.0,167.0,168.0,168.0,170.0,170.0,171.0,171.0,172.0,173.0,173.0,174.0,175.0,175.0,176.0,176.0,177.0,178.0,179.0,180.0,180.0,181.0,182.0,183.0,183.0,184.0,185.0,186.0,187.0,187.0,188.0,189.0,189.0,190.0,191.0,192.0,192.0,193.0,194.0,195.0,196.0,197.0,197.0,199.0,200.0,201.0,202.0,203.0,204.0,204.0,205.0,206.0,207.0,208.0,209.0,210.0,211.0,211.0,212.0,213.0,214.0,216.0,217.0,218.0,219.0,220.0,221.0,222.0,223.0,225.0,226.0,227.0,228.0,229.0,230.0,232.0,233.0,234.0,235.0,235.0,236.0,237.0,239.0,240.0,241.0,243.0,244.0,245.0,247.0,249.0,251.0,252.0,254.0,255.0,1.0,3.0,3.0,5.0,7.0,7.0,7.0,7.0,7.0,7.0,7.0,7.0,7.0,7.0,7.0,7.0,7.0,7.0,9.0,0.0,0.0,0.0,167.0,0.0,0.0,5.0,7.0,7.0,5.0,5.0,5.0,5.0,5.0,5.0,5.0,5.0,5.0,5.0,5.0,5.0,5.0,5.0,5.0,5.0,5.0,3.0,3.0,5.0,0.0,0.0,0.0,0.0,85.0,0.0,0.0,0.0,91.0,89.0,91.0,91.0,0.0,89.0,91.0,89.0,89.0,89.0,89.0,89.0,89.0,89.0,89.0,91.0,89.0,89.0,89.0,89.0,89.0,87.0,89.0,87.0,87.0,87.0,87.0,87.0,87.0,87.0,87.0,87.0,87.0,89.0,89.0,89.0,89.0,89.0,89.0,89.0,89.0,89.0,87.0,87.0,87.0,89.0,87.0,87.0,87.0,87.0,87.0,87.0,87.0,87.0,87.0,87.0,87.0,87.0,87.0,85.0,85.0,85.0,85.0,85.0,85.0,85.0,85.0,85.0,85.0,83.0,83.0,83.0,83.0,83.0,83.0,83.0,83.0,83.0,83.0,83.0,83.0,83.0,83.0,83.0,81.0,81.0,81.0,81.0,81.0,81.0,81.0,81.0,81.0,81.0,83.0,83.0,83.0,83.0,81.0,83.0,81.0,81.0,81.0,81.0,81.0,81.0,81.0,81.0,83.0,83.0,85.0,0.0,130.0,128.0,123.0,120.0,120.0,120.0,120.0,120.0,120.0,120.0,120.0,119.0,119.0,119.0,119.0,119.0,119.0,119.0,119.0,119.0,119.0,119.0,119.0,119.0,119.0,119.0,119.0,119.0,118.0,118.0,118.0,118.0,118.0,118.0,118.0,118.0,118.0,118.0,118.0,118.0,118.0,118.0,118.0,118.0,118.0,118.0,118.0,118.0,118.0,118.0,118.0,118.0,118.0,117.0,117.0,117.0,117.0,117.0,117.0,117.0,117.0,117.0,117.0,117.0,117.0,117.0,117.0,117.0,117.0,117.0,117.0,117.0,117.0,117.0,116.0,116.0,116.0,116.0,116.0,116.0,116.0,116.0,116.0,116.0,116.0,116.0,116.0,116.0,116.0,116.0,116.0,116.0,115.0,115.0,115.0,115.0,115.0,115.0,115.0,115.0,115.0,115.0,115.0,115.0,115.0,115.0,115.0,115.0,115.0,115.0,115.0,115.0,114.0,114.0,115.0,115.0,115.0,114.0,114.0,114.0,114.0,114.0,114.0,114.0,114.0,114.0,114.0,114.0,114.0,114.0,114.0,114.0,114.0,114.0,113.0,113.0,113.0,113.0,113.0,113.0,113.0,113.0,113.0,113.0,113.0,113.0,113.0,113.0,113.0,113.0,113.0,113.0,113.0,112.0,113.0,112.0,112.0,112.0,113.0,112.0,112.0,112.0,112.0,112.0,112.0,112.0,112.0,112.0,112.0,112.0,112.0,111.0,111.0,111.0,111.0,111.0,111.0,111.0,111.0,111.0,111.0,111.0,110.0,110.0,110.0,111.0,111.0,111.0,111.0,110.0,110.0,110.0,110.0,0.0
0.0,154.0,154.0,153.0,153.0,154.0,154.0,152.0,152.0,152.0,152.0,153.0,153.0,153.0,152.0,152.0,153.0,152.0,152.0,152.0,152.0,151.0,151.0,152.0,151.0,151.0,151.0,151.0,151.0,151.0,151.0,151.0,152.0,152.0,153.0,154.0,154.0,155.0,155.0,156.0,157.0,157.0,157.0,158.0,159.0,159.0,160.0,160.0,161.0,162.0,163.0,164.0,164.0,165.0,165.0,166.0,166.0,167.0,168.0,169.0,169.0,170.0,170.0,171.0,172.0,173.0,174.0,174.0,175.0,175.0,176.0,176.0,177.0,178.0,179.0,180.0,180.0,181.0,182.0,183.0,184.0,184.0,185.0,186.0,186.0,187.0,188.0,189.0,189.0,190.0,191.0,192.0,193.0,193.0,194.0,195.0,196.0,197.0,197.0,199.0,200.0,201.0,201.0,203.0,203.0,204.0,205.0,206.0,207.0,208.0,209.0,210.0,211.0,211.0,212.0,213.0,215.0,216.0,217.0,218.0,219.0,220.0,221.0,222.0,223.0,224.0,226.0,227.0,228.0,229.0,231.0,232.0,233.0,234.0,234.0,235.0,237.0,238.0,239.0,240.0,241.0,242.0,244.0,245.0,247.0,248.0,250.0,252.0,253.0,254.0,1.0,1.0,3.0,3.0,5.0,5.0,7.0,7.0,7.0,7.0,5.0,7.0,7.0,7.0,7.0,7.0,7.0,7.0,9.0,0.0,0.0,0.0,168.0,0.0,5.0,5.0,5.0,5.0,5.0,5.0,5.0,5.0,5.0,5.0,5.0,3.0,3.0,3.0,3.0,3.0,3.0,3.0,3.0,3.0,3.0,3.0,3.0,5.0,0.0,0.0,0.0,0.0,0.0,0.0,91.0,89.0,89.0,91.0,0.0,93.0,89.0,87.0,87.0,87.0,89.0,89.0,89.0,89.0,89.0,89.0,89.0,89.0,89.0,89.0,89.0,87.0,87.0,87.0,87.0,87.0,87.0,87.0,87.0,87.0,87.0,87.0,87.0,87.0,87.0,87.0,89.0,89.0,89.0,89.0,89.0,89.0,89.0,89.0,87.0,87.0,87.0,87.0,87.0,87.0,87.0,87.0,87.0,87.0,87.0,87.0,87.0,87.0,87.0,85.0,85.0,85.0,85.0,85.0,85.0,85.0,85.0,85.0,85.0,83.0,83.0,83.0,83.0,83.0,83.0,83.0,83.0,83.0,83.0,83.0,83.0,83.0,83.0,83.0,83.0,83.0,81.0,81.0,81.0,81.0,81.0,81.0,81.0,81.0,81.0,81.0,83.0,83.0,83.0,83.0,83.0,83.0,81.0,81.0,81.0,81.0,81.0,81.0,81.0,81.0,83.0,83.0,83.0,0.0,130.0,128.0,124.0,120.0,120.0,120.0,120.0,120.0,120.0,120.0,119.0,119.0,119.0,119.0,119.0,119.0,119.0,119.0,119.0,119.0,119.0,119.0,119.0,119.0,119.0,119.0,119.0,119.0,119.0,118.0,118.0,118.0,118.0,118.0,118.0,118.0,118.0,118.0,118.0,118.0,118.0,118.0,118.0,118.0,118.0,118.0,118.0,118.0,118.0,118.0,118.0,118.0,118.0,117.0,118.0,118.0,117.0,117.0,117.0,117.0,117.0,117.0,117.0,117.0,117.0,117.0,117.0,117.0,117.0,117.0,117.0,117.0,117.0,117.0,117.0,116.0,116.0,116.0,116.0,116.0,116.0,116.0,116.0,116.0,116.0,116.0,116.0,116.0,116.0,116.0,116.0,116.0,116.0,115.0,115.0,115.0,115.0,115.0,115.0,115.0,115.0,115.0,115.0,115.0,115.0,115.0,115.0,115.0,115.0,115.0,115.0,115.0,115.0,114.0,115.0,115.0,114.0,114.0,114.0,114.0,114.0,114.0,114.0,114.0,114.0,114.0,114.0,114.0,114.0,114.0,114.0,114.0,114.0,114.0,113.0,114.0,113.0,113.0,113.0,113.0,113.0,113.0,113.0,113.0,113.0,113.0,113.0,113.0,113.0,113.0,113.0,113.0,113.0,112.0,112.0,112.0,113.0,113.0,113.0,112.0,112.0,112.0,112.0,112.0,112.0,112.0,112.0,112.0,112.0,112.0,112.0,111.0,111.0,112.0,111.0,111.0,111.0,111.0,111.0,111.0,111.0,111.0,111.0,111.0,110.0,111.0,111.0,111.0,111.0,110.0,110.0,110.0,110.0,0.0
0.0,154.0,153.0,153.0,153.0,154.0,153.0,153.0,152.0,152.0,152.0,153.0,153.0,153.0,153.0,153.0,153.0,153.0,152.0,151.0,151.0,152.0,152.0,152.0,151.0,151.0,151.0,151.0,151.0,151.0,151.0,152.0,152.0,153.0,153.0,153.0,153.0,154.0,155.0,156.0,156.0,157.0,157.0,158.0,159.0,160.0,160.0,160.0,161.0,163.0,163.0,164.0,164.0,165.0,165.0,166.0,167.0,167.0,168.0,169.0,169.0,170.0,170.0,171.0,172.0,173.0,173.0,174.0,175.0,175.0,176.0,176.0,177.0,178.0,179.0,179.0,180.0,181.0,181.0,182.0,183.0,184.0,185.0,186.0,186.0,187.0,188.0,189.0,189.0,190.0,191.0,192.0,193.0,193.0,194.0,195.0,196.0,197.0,198.0,199.0,200.0,201.0,202.0,203.0,203.0,204.0,205.0,206.0,207.0,208.0,209.0,209.0,210.0,211.0,212.0,213.0,215.0,216.0,217.0,218.0,219.0,220.0,221.0,222.0,223.0,224.0,226.0,226.0,227.0,229.0,231.0,232.0,233.0,233.0,235.0,236.0,237.0,238.0,239.0,240.0,242.0,242.0,243.0,245.0,247.0,248.0,249.0,250.0,251.0,251.0,253.0,0.0,1.0,1.0,3.0,5.0,5.0,5.0,0.0,0.0,0.0,0.0,5.0,5.0,5.0,5.0,0.0,0.0,9.0,0.0,0.0,0.0,168.0,0.0,0.0,0.0,0.0,0.0,0.0,0.0,3.0,0.0,0.0,0.0,0.0,0.0,0.0,0.0,0.0,0.0,0.0,0.0,0.0,0.0,0.0,0.0,0.0,0.0,0.0,0.0,0.0,0.0,0.0,0.0,87.0,0.0,89.0,93.0,93.0,91.0,93.0,89.0,87.0,87.0,89.0,89.0,89.0,89.0,89.0,89.0,89.0,89.0,89.0,89.0,89.0,89.0,87.0,87.0,87.0,87.0,87.0,89.0,87.0,87.0,87.0,87.0,87.0,87.0,89.0,89.0,89.0,89.0,89.0,89.0,89.0,89.0,89.0,89.0,89.0,89.0,89.0,87.0,87.0,87.0,87.0,87.0,87.0,87.0,87.0,87.0,87.0,87.0,85.0,85.0,85.0,85.0,85.0,85.0,85.0,85.0,85.0,85.0,85.0,85.0,83.0,83.0,83.0,83.0,83.0,83.0,83.0,83.0,83.0,83.0,83.0,83.0,83.0,83.0,83.0,83.0,83.0,83.0,81.0,81.0,81.0,81.0,81.0,81.0,81.0,81.0,83.0,81.0,81.0,83.0,83.0,83.0,81.0,81.0,81.0,81.0,81.0,81.0,81.0,81.0,83.0,85.0,85.0,0.0,130.0,128.0,124.0,120.0,120.0,120.0,120.0,120.0,120.0,120.0,119.0,119.0,119.0,119.0,119.0,119.0,119.0,119.0,119.0,119.0,119.0,119.0,119.0,119.0,119.0,119.0,119.0,119.0,119.0,118.0,118.0,118.0,118.0,118.0,118.0,118.0,118.0,118.0,118.0,118.0,118.0,118.0,118.0,118.0,118.0,118.0,118.0,118.0,118.0,118.0,118.0,118.0,117.0,117.0,117.0,118.0,117.0,117.0,117.0,117.0,117.0,117.0,117.0,117.0,117.0,117.0,117.0,117.0,117.0,117.0,117.0,117.0,117.0,117.0,116.0,116.0,116.0,116.0,116.0,116.0,116.0,116.0,116.0,116.0,116.0,116.0,116.0,116.0,116.0,116.0,116.0,116.0,115.0,115.0,115.0,115.0,115.0,115.0,115.0,115.0,115.0,115.0,115.0,115.0,115.0,115.0,115.0,115.0,115.0,115.0,115.0,115.0,115.0,115.0,115.0,115.0,114.0,114.0,114.0,114.0,114.0,114.0,114.0,114.0,114.0,114.0,114.0,114.0,114.0,114.0,114.0,114.0,114.0,114.0,114.0,114.0,114.0,113.0,113.0,113.0,113.0,113.0,113.0,113.0,113.0,113.0,113.0,112.0,113.0,113.0,113.0,113.0,113.0,113.0,113.0,112.0,112.0,112.0,112.0,112.0,112.0,112.0,112.0,112.0,112.0,112.0,112.0,112.0,111.0,111.0,111.0,111.0,111.0,111.0,111.0,111.0,111.0,111.0,111.0,111.0,111.0,111.0,111.0,111.0,110.0,111.0,111.0,111.0,110.0,110.0,110.0,110.0,110.0,0.0
0.0,153.0,153.0,153.0,153.0,153.0,153.0,152.0,152.0,152.0,152.0,153.0,153.0,153.0,153.0,153.0,153.0,153.0,152.0,151.0,151.0,152.0,152.0,151.0,151.0,151.0,151.0,151.0,151.0,151.0,151.0,151.0,152.0,152.0,152.0,153.0,153.0,154.0,155.0,156.0,156.0,157.0,157.0,158.0,159.0,160.0,160.0,161.0,161.0,162.0,163.0,164.0,164.0,164.0,165.0,166.0,167.0,167.0,168.0,168.0,169.0,170.0,170.0,171.0,171.0,172.0,173.0,174.0,175.0,175.0,176.0,177.0,177.0,178.0,179.0,180.0,181.0,181.0,182.0,183.0,183.0,184.0,185.0,186.0,186.0,187.0,188.0,189.0,190.0,190.0,191.0,192.0,193.0,193.0,194.0,195.0,196.0,197.0,198.0,199.0,200.0,201.0,202.0,203.0,203.0,204.0,205.0,206.0,207.0,208.0,209.0,209.0,210.0,212.0,213.0,214.0,215.0,216.0,217.0,218.0,219.0,220.0,221.0,222.0,223.0,224.0,225.0,226.0,228.0,229.0,230.0,231.0,233.0,233.0,235.0,236.0,237.0,238.0,239.0,240.0,241.0,242.0,244.0,245.0,246.0,247.0,248.0,248.0,248.0,249.0,249.0,249.0,250.0,250.0,250.0,251.0,249.0,249.0,248.0,248.0,248.0,248.0,248.0,249.0,249.0,248.0,248.0,249.0,250.0,0.0,0.0,0.0,167.0,0.0,0.0,0.0,248.0,0.0,247.0,246.0,246.0,246.0,247.0,247.0,247.0,245.0,245.0,245.0,244.0,244.0,243.0,243.0,243.0,244.0,243.0,243.0,243.0,0.0,0.0,0.0,0.0,0.0,0.0,0.0,0.0,0.0,0.0,0.0,0.0,91.0,91.0,91.0,89.0,89.0,89.0,89.0,89.0,89.0,89.0,89.0,89.0,87.0,87.0,89.0,89.0,89.0,89.0,87.0,87.0,87.0,89.0,87.0,87.0,87.0,87.0,87.0,87.0,89.0,89.0,89.0,89.0,89.0,89.0,89.0,89.0,89.0,89.0,89.0,89.0,89.0,89.0,87.0,87.0,87.0,87.0,87.0,87.0,87.0,87.0,87.0,87.0,85.0,85.0,85.0,85.0,85.0,85.0,85.0,85.0,85.0,85.0,85.0,85.0,85.0,85.0,83.0,83.0,83.0,83.0,83.0,83.0,83.0,83.0,83.0,83.0,83.0,83.0,83.0,83.0,83.0,81.0,81.0,81.0,81.0,81.0,81.0,81.0,81.0,81.0,81.0,81.0,81.0,81.0,83.0,83.0,81.0,81.0,81.0,81.0,81.0,81.0,81.0,81.0,81.0,83.0,85.0,87.0,0.0,130.0,128.0,124.0,120.0,120.0,120.0,120.0,120.0,120.0,120.0,119.0,119.0,119.0,119.0,119.0,119.0,119.0,119.0,119.0,119.0,119.0,119.0,119.0,119.0,119.0,119.0,119.0,119.0,119.0,119.0,118.0,118.0,118.0,118.0,118.0,118.0,118.0,118.0,118.0,118.0,118.0,118.0,118.0,118.0,118.0,118.0,118.0,118.0,118.0,118.0,118.0,118.0,117.0,117.0,117.0,118.0,117.0,117.0,117.0,117.0,117.0,117.0,117.0,117.0,117.0,117.0,117.0,117.0,117.0,117.0,117.0,117.0,117.0,117.0,117.0,117.0,116.0,116.0,116.0,116.0,116.0,116.0,116.0,116.0,116.0,116.0,116.0,116.0,116.0,116.0,116.0,116.0,116.0,116.0,115.0,115.0,115.0,115.0,115.0,115.0,115.0,115.0,115.0,115.0,115.0,115.0,115.0,115.0,115.0,115.0,115.0,115.0,114.0,114.0,115.0,115.0,114.0,114.0,114.0,114.0,114.0,114.0,114.0,114.0,114.0,114.0,114.0,114.0,114.0,114.0,114.0,114.0,114.0,114.0,113.0,113.0,113.0,113.0,113.0,113.0,114.0,113.0,113.0,113.0,113.0,113.0,113.0,113.0,113.0,113.0,113.0,113.0,113.0,113.0,113.0,113.0,113.0,112.0,112.0,112.0,112.0,112.0,112.0,112.0,112.0,112.0,112.0,112.0,112.0,112.0,112.0,111.0,111.0,111.0,111.0,111.0,111.0,111.0,111.0,111.0,111.0,111.0,111.0,111.0,111.0,111.0,111.0,110.0,110.0,110.0,110.0,110.0,110.0,0.0
0.0,153.0,153.0,153.0,153.0,153.0,152.0,152.0,152.0,152.0,152.0,153.0,153.0,153.0,153.0,153.0,152.0,152.0,152.0,151.0,151.0,152.0,151.0,151.0,151.0,151.0,151.0,151.0,151.0,151.0,151.0,151.0,151.0,152.0,152.0,153.0,154.0,154.0,155.0,155.0,156.0,157.0,157.0,158.0,159.0,159.0,160.0,161.0,161.0,162.0,163.0,164.0,164.0,164.0,165.0,166.0,167.0,167.0,168.0,168.0,169.0,170.0,170.0,171.0,171.0,172.0,173.0,174.0,175.0,176.0,176.0,177.0,178.0,178.0,179.0,180.0,181.0,181.0,182.0,183.0,183.0,184.0,185.0,185.0,186.0,187.0,188.0,189.0,190.0,190.0,191.0,192.0,193.0,193.0,195.0,195.0,196.0,197.0,198.0,199.0,200.0,201.0,202.0,203.0,203.0,204.0,205.0,206.0,207.0,208.0,209.0,210.0,211.0,212.0,213.0,214.0,215.0,216.0,216.0,218.0,219.0,220.0,221.0,222.0,224.0,225.0,226.0,227.0,228.0,229.0,230.0,231.0,233.0,233.0,234.0,235.0,236.0,237.0,239.0,240.0,241.0,243.0,244.0,245.0,246.0,247.0,247.0,247.0,247.0,247.0,247.0,248.0,248.0,248.0,248.0,248.0,248.0,247.0,247.0,247.0,247.0,246.0,246.0,246.0,247.0,247.0,247.0,247.0,248.0,0.0,0.0,0.0,167.0,0.0,245.0,246.0,246.0,245.0,245.0,244.0,244.0,244.0,245.0,245.0,244.0,244.0,244.0,243.0,243.0,243.0,242.0,242.0,242.0,242.0,242.0,242.0,242.0,242.0,0.0,0.0,0.0,0.0,0.0,0.0,0.0,0.0,0.0,0.0,0.0,0.0,89.0,89.0,91.0,89.0,89.0,89.0,89.0,89.0,89.0,89.0,87.0,87.0,87.0,89.0,91.0,91.0,89.0,87.0,87.0,87.0,87.0,87.0,87.0,87.0,87.0,87.0,89.0,89.0,89.0,89.0,87.0,89.0,87.0,89.0,89.0,89.0,87.0,87.0,89.0,89.0,87.0,87.0,87.0,87.0,87.0,87.0,87.0,87.0,87.0,87.0,87.0,85.0,85.0,85.0,85.0,85.0,85.0,85.0,85.0,85.0,85.0,85.0,85.0,85.0,83.0,83.0,83.0,83.0,83.0,83.0,83.0,83.0,83.0,83.0,83.0,83.0,83.0,83.0,83.0,83.0,81.0,81.0,81.0,81.0,81.0,81.0,81.0,81.0,81.0,81.0,81.0,81.0,81.0,81.0,81.0,81.0,81.0,81.0,81.0,81.0,81.0,81.0,81.0,81.0,83.0,85.0,87.0,0.0,130.0,128.0,124.0,120.0,120.0,120.0,120.0,119.0,120.0,119.0,119.0,119.0,119.0,119.0,119.0,119.0,119.0,119.0,119.0,119.0,119.0,119.0,119.0,119.0,119.0,119.0,119.0,119.0,119.0,119.0,119.0,119.0,118.0,118.0,118.0,118.0,118.0,118.0,118.0,118.0,118.0,118.0,118.0,118.0,118.0,118.0,118.0,118.0,118.0,118.0,118.0,118.0,117.0,117.0,117.0,117.0,117.0,117.0,117.0,117.0,117.0,117.0,117.0,117.0,117.0,117.0,117.0,117.0,117.0,117.0,117.0,117.0,117.0,117.0,116.0,116.0,116.0,116.0,116.0,116.0,116.0,116.0,116.0,116.0,116.0,116.0,116.0,116.0,116.0,116.0,116.0,116.0,116.0,116.0,116.0,116.0,115.0,115.0,115.0,115.0,115.0,115.0,115.0,115.0,115.0,115.0,115.0,115.0,115.0,115.0,115.0,115.0,114.0,114.0,114.0,114.0,114.0,114.0,114.0,114.0,114.0,114.0,114.0,114.0,114.0,114.0,114.0,114.0,114.0,114.0,114.0,114.0,114.0,114.0,114.0,113.0,114.0,113.0,113.0,113.0,113.0,113.0,113.0,113.0,113.0,113.0,113.0,113.0,113.0,113.0,113.0,113.0,113.0,113.0,113.0,113.0,112.0,112.0,112.0,112.0,112.0,112.0,112.0,112.0,112.0,112.0,112.0,112.0,112.0,112.0,112.0,112.0,111.0,111.0,111.0,111.0,111.0,111.0,111.0,111.0,111.0,111.0,111.0,111.0,111.0,111.0,111.0,110.0,110.0,110.0,110.0,110.0,110.0,0.0
0.0,153.0,154.0,154.0,153.0,152.0,152.0,152.0,152.0,152.0,152.0,153.0,153.0,153.0,153.0,152.0,152.0,152.0,152.0,152.0,152.0,152.0,151.0,151.0,151.0,152.0,152.0,151.0,151.0,151.0,151.0,151.0,152.0,151.0,152.0,153.0,154.0,155.0,155.0,155.0,156.0,157.0,157.0,158.0,159.0,159.0,160.0,161.0,161.0,162.0,163.0,164.0,164.0,164.0,165.0,166.0,167.0,167.0,168.0,168.0,169.0,169.0,170.0,171.0,172.0,173.0,173.0,174.0,175.0,176.0,177.0,177.0,178.0,178.0,179.0,180.0,180.0,181.0,182.0,183.0,183.0,184.0,185.0,186.0,186.0,187.0,188.0,189.0,189.0,190.0,191.0,192.0,193.0,194.0,195.0,195.0,196.0,197.0,198.0,199.0,199.0,201.0,202.0,203.0,203.0,204.0,205.0,206.0,207.0,208.0,209.0,210.0,211.0,212.0,213.0,214.0,215.0,216.0,216.0,218.0,219.0,220.0,221.0,223.0,224.0,225.0,226.0,227.0,228.0,229.0,230.0,231.0,233.0,233.0,234.0,235.0,236.0,237.0,239.0,240.0,241.0,243.0,244.0,245.0,246.0,247.0,247.0,247.0,247.0,247.0,247.0,247.0,248.0,247.0,247.0,247.0,248.0,247.0,247.0,247.0,246.0,246.0,245.0,245.0,246.0,247.0,247.0,247.0,0.0,0.0,0.0,167.0,167.0,0.0,245.0,245.0,245.0,245.0,245.0,244.0,244.0,244.0,244.0,244.0,244.0,244.0,244.0,243.0,243.0,243.0,243.0,242.0,242.0,242.0,242.0,242.0,242.0,243.0,0.0,0.0,0.0,0.0,0.0,0.0,0.0,0.0,91.0,0.0,0.0,0.0,0.0,89.0,89.0,89.0,89.0,89.0,91.0,89.0,89.0,89.0,89.0,87.0,89.0,91.0,91.0,91.0,89.0,87.0,87.0,87.0,87.0,87.0,87.0,87.0,87.0,87.0,89.0,89.0,87.0,87.0,87.0,89.0,89.0,89.0,89.0,89.0,87.0,89.0,89.0,89.0,87.0,87.0,87.0,87.0,87.0,87.0,87.0,87.0,87.0,87.0,87.0,85.0,85.0,85.0,85.0,85.0,85.0,85.0,85.0,85.0,85.0,85.0,85.0,85.0,85.0,83.0,83.0,83.0,83.0,83.0,83.0,83.0,83.0,83.0,83.0,83.0,83.0,83.0,83.0,81.0,81.0,81.0,81.0,81.0,81.0,81.0,81.0,81.0,81.0,81.0,83.0,81.0,81.0,81.0,81.0,81.0,81.0,81.0,81.0,81.0,81.0,81.0,81.0,83.0,83.0,85.0,87.0,0.0,130.0,128.0,124.0,120.0,120.0,120.0,120.0,119.0,119.0,119.0,119.0,119.0,119.0,119.0,119.0,119.0,119.0,119.0,119.0,119.0,119.0,119.0,119.0,119.0,119.0,119.0,119.0,119.0,119.0,119.0,119.0,118.0,118.0,118.0,118.0,118.0,118.0,118.0,118.0,118.0,118.0,118.0,118.0,118.0,118.0,118.0,118.0,118.0,118.0,118.0,118.0,118.0,117.0,117.0,117.0,117.0,117.0,117.0,117.0,117.0,117.0,117.0,117.0,117.0,117.0,117.0,117.0,117.0,117.0,117.0,116.0,117.0,117.0,117.0,116.0,116.0,116.0,116.0,116.0,116.0,116.0,116.0,116.0,116.0,116.0,116.0,116.0,116.0,116.0,116.0,116.0,116.0,116.0,116.0,116.0,115.0,115.0,115.0,115.0,115.0,115.0,115.0,115.0,115.0,115.0,115.0,115.0,115.0,115.0,115.0,115.0,115.0,115.0,114.0,114.0,114.0,114.0,114.0,114.0,114.0,114.0,114.0,114.0,114.0,114.0,114.0,114.0,114.0,114.0,114.0,114.0,114.0,114.0,114.0,113.0,113.0,113.0,113.0,113.0,113.0,113.0,113.0,113.0,113.0,113.0,113.0,113.0,113.0,113.0,113.0,113.0,113.0,113.0,113.0,113.0,112.0,113.0,112.0,112.0,112.0,112.0,112.0,112.0,112.0,112.0,112.0,112.0,112.0,112.0,112.0,112.0,112.0,111.0,111.0,111.0,111.0,111.0,111.0,111.0,111.0,111.0,111.0,111.0,111.0,111.0,111.0,111.0,111.0,111.0,111.0,110.0,110.0,110.0,0.0
0.0,154.0,155.0,154.0,153.0,153.0,152.0,152.0,152.0,153.0,153.0,153.0,153.0,153.0,153.0,152.0,152.0,152.0,152.0,152.0,152.0,152.0,151.0,151.0,151.0,151.0,151.0,151.0,151.0,151.0,151.0,151.0,151.0,151.0,152.0,153.0,154.0,155.0,155.0,156.0,157.0,157.0,158.0,158.0,158.0,159.0,160.0,160.0,162.0,162.0,163.0,163.0,164.0,164.0,165.0,166.0,166.0,167.0,168.0,169.0,169.0,170.0,170.0,171.0,172.0,173.0,174.0,174.0,174.0,175.0,176.0,177.0,178.0,178.0,179.0,180.0,180.0,181.0,182.0,182.0,183.0,184.0,185.0,185.0,187.0,187.0,188.0,189.0,189.0,190.0,191.0,192.0,193.0,194.0,195.0,195.0,196.0,197.0,198.0,199.0,199.0,200.0,201.0,202.0,203.0,204.0,205.0,206.0,207.0,208.0,209.0,210.0,211.0,212.0,213.0,214.0,215.0,216.0,217.0,218.0,219.0,220.0,221.0,223.0,224.0,225.0,226.0,228.0,228.0,228.0,229.0,231.0,232.0,233.0,234.0,235.0,236.0,237.0,239.0,240.0,241.0,243.0,244.0,245.0,246.0,247.0,248.0,248.0,247.0,247.0,247.0,247.0,248.0,248.0,248.0,247.0,247.0,247.0,247.0,247.0,247.0,246.0,246.0,245.0,246.0,246.0,247.0,248.0,249.0,0.0,0.0,0.0,167.0,0.0,246.0,246.0,245.0,245.0,245.0,245.0,244.0,244.0,244.0,244.0,244.0,243.0,243.0,243.0,243.0,242.0,243.0,243.0,242.0,241.0,241.0,241.0,242.0,243.0,0.0,0.0,0.0,0.0,0.0,0.0,0.0,0.0,91.0,93.0,0.0,0.0,0.0,0.0,89.0,89.0,89.0,89.0,89.0,89.0,89.0,89.0,89.0,89.0,89.0,91.0,91.0,89.0,89.0,87.0,87.0,87.0,87.0,87.0,87.0,87.0,87.0,87.0,87.0,89.0,87.0,87.0,87.0,87.0,89.0,89.0,89.0,89.0,87.0,87.0,87.0,87.0,87.0,87.0,87.0,87.0,87.0,87.0,87.0,87.0,87.0,87.0,87.0,85.0,85.0,85.0,85.0,85.0,85.0,85.0,85.0,85.0,85.0,85.0,85.0,85.0,83.0,83.0,83.0,83.0,83.0,83.0,83.0,83.0,83.0,83.0,83.0,83.0,81.0,83.0,83.0,83.0,81.0,81.0,81.0,81.0,81.0,81.0,81.0,81.0,81.0,81.0,83.0,83.0,81.0,81.0,81.0,81.0,81.0,81.0,81.0,81.0,81.0,81.0,81.0,83.0,83.0,85.0,85.0,0.0,130.0,128.0,124.0,120.0,120.0,120.0,119.0,119.0,119.0,119.0,119.0,119.0,119.0,119.0,119.0,119.0,119.0,119.0,119.0,119.0,119.0,119.0,119.0,119.0,119.0,119.0,119.0,119.0,119.0,119.0,119.0,118.0,118.0,118.0,118.0,118.0,118.0,118.0,118.0,118.0,118.0,118.0,118.0,118.0,118.0,118.0,118.0,118.0,118.0,118.0,118.0,117.0,117.0,117.0,117.0,117.0,117.0,117.0,117.0,117.0,117.0,117.0,117.0,117.0,117.0,117.0,117.0,117.0,117.0,117.0,117.0,117.0,116.0,116.0,116.0,116.0,116.0,116.0,116.0,116.0,116.0,116.0,116.0,116.0,116.0,116.0,116.0,116.0,116.0,116.0,116.0,115.0,116.0,116.0,116.0,115.0,115.0,115.0,115.0,115.0,115.0,115.0,115.0,115.0,115.0,115.0,115.0,115.0,115.0,115.0,115.0,115.0,115.0,115.0,114.0,114.0,114.0,114.0,114.0,114.0,114.0,114.0,114.0,114.0,114.0,114.0,114.0,114.0,114.0,114.0,114.0,114.0,114.0,114.0,113.0,113.0,113.0,114.0,114.0,113.0,113.0,113.0,113.0,113.0,113.0,113.0,113.0,113.0,113.0,113.0,113.0,113.0,113.0,113.0,112.0,112.0,112.0,112.0,112.0,112.0,112.0,112.0,112.0,112.0,112.0,112.0,112.0,112.0,112.0,112.0,112.0,112.0,111.0,111.0,111.0,111.0,111.0,111.0,111.0,111.0,111.0,111.0,111.0,111.0,111.0,111.0,111.0,111.0,111.0,111.0,110.0,110.0,110.0,0.0
0.0,154.0,155.0,154.0,153.0,153.0,153.0,153.0,153.0,152.0,152.0,152.0,152.0,152.0,152.0,152.0,152.0,152.0,152.0,152.0,152.0,152.0,151.0,151.0,151.0,151.0,151.0,151.0,151.0,151.0,150.0,151.0,151.0,152.0,152.0,153.0,154.0,154.0,155.0,156.0,156.0,157.0,158.0,158.0,158.0,159.0,159.0,161.0,162.0,162.0,163.0,163.0,164.0,165.0,165.0,166.0,166.0,167.0,168.0,169.0,169.0,170.0,170.0,171.0,172.0,173.0,173.0,174.0,174.0,175.0,176.0,177.0,178.0,178.0,179.0,179.0,180.0,181.0,182.0,183.0,184.0,185.0,186.0,186.0,187.0,188.0,189.0,189.0,190.0,190.0,191.0,192.0,193.0,194.0,194.0,195.0,196.0,197.0,198.0,199.0,199.0,200.0,201.0,202.0,203.0,204.0,205.0,206.0,207.0,208.0,209.0,210.0,211.0,212.0,213.0,214.0,215.0,216.0,217.0,218.0,219.0,220.0,221.0,223.0,224.0,225.0,226.0,227.0,228.0,228.0,230.0,231.0,232.0,233.0,234.0,235.0,237.0,238.0,239.0,240.0,241.0,242.0,244.0,245.0,246.0,247.0,247.0,248.0,248.0,248.0,248.0,248.0,248.0,248.0,248.0,247.0,247.0,247.0,248.0,248.0,247.0,247.0,246.0,247.0,246.0,246.0,247.0,248.0,0.0,0.0,0.0,167.0,168.0,0.0,246.0,246.0,245.0,245.0,245.0,245.0,245.0,245.0,245.0,244.0,244.0,243.0,243.0,243.0,243.0,243.0,243.0,242.0,243.0,242.0,242.0,242.0,242.0,243.0,240.0,0.0,0.0,0.0,0.0,0.0,0.0,0.0,0.0,91.0,91.0,0.0,0.0,0.0,89.0,91.0,91.0,89.0,87.0,89.0,89.0,89.0,89.0,89.0,89.0,91.0,91.0,89.0,89.0,87.0,89.0,87.0,87.0,87.0,87.0,89.0,87.0,89.0,89.0,89.0,89.0,87.0,87.0,87.0,89.0,89.0,89.0,89.0,87.0,89.0,89.0,89.0,89.0,87.0,87.0,89.0,87.0,87.0,87.0,87.0,87.0,87.0,87.0,87.0,85.0,85.0,85.0,85.0,85.0,85.0,85.0,85.0,85.0,85.0,85.0,85.0,85.0,85.0,85.0,85.0,85.0,83.0,83.0,83.0,83.0,85.0,83.0,83.0,83.0,83.0,83.0,83.0,83.0,83.0,83.0,81.0,81.0,81.0,81.0,81.0,81.0,81.0,83.0,83.0,81.0,81.0,81.0,81.0,81.0,81.0,81.0,81.0,81.0,81.0,81.0,81.0,83.0,83.0,85.0,0.0,130.0,128.0,124.0,120.0,120.0,120.0,119.0,119.0,119.0,119.0,119.0,119.0,119.0,119.0,119.0,119.0,119.0,119.0,119.0,119.0,119.0,119.0,119.0,119.0,119.0,119.0,118.0,118.0,118.0,118.0,118.0,118.0,118.0,118.0,118.0,118.0,118.0,118.0,118.0,118.0,118.0,118.0,118.0,118.0,118.0,118.0,118.0,118.0,118.0,118.0,117.0,118.0,118.0,117.0,117.0,117.0,117.0,117.0,117.0,117.0,117.0,117.0,117.0,117.0,117.0,117.0,117.0,117.0,117.0,117.0,117.0,117.0,116.0,116.0,116.0,116.0,116.0,116.0,116.0,116.0,116.0,116.0,116.0,116.0,116.0,116.0,116.0,116.0,116.0,116.0,116.0,116.0,115.0,115.0,115.0,115.0,115.0,115.0,115.0,115.0,115.0,115.0,115.0,115.0,115.0,115.0,115.0,115.0,115.0,115.0,115.0,115.0,115.0,115.0,114.0,114.0,115.0,115.0,114.0,114.0,114.0,114.0,114.0,114.0,114.0,114.0,114.0,114.0,114.0,114.0,114.0,114.0,114.0,113.0,113.0,113.0,113.0,113.0,114.0,113.0,113.0,113.0,113.0,113.0,113.0,113.0,113.0,113.0,113.0,113.0,113.0,113.0,113.0,113.0,113.0,113.0,113.0,112.0,112.0,112.0,112.0,112.0,112.0,112.0,112.0,112.0,112.0,112.0,112.0,112.0,112.0,112.0,111.0,111.0,111.0,111.0,111.0,111.0,111.0,111.0,111.0,111.0,110.0,110.0,111.0,111.0,111.0,110.0,110.0,110.0,110.0,110.0,110.0,0.0
0.0,154.0,154.0,154.0,153.0,152.0,153.0,153.0,153.0,153.0,152.0,152.0,152.0,153.0,153.0,152.0,152.0,152.0,152.0,152.0,152.0,152.0,151.0,151.0,151.0,151.0,151.0,151.0,151.0,151.0,150.0,150.0,151.0,152.0,153.0,153.0,154.0,154.0,155.0,156.0,156.0,157.0,158.0,158.0,158.0,159.0,160.0,161.0,161.0,162.0,162.0,163.0,164.0,165.0,165.0,166.0,166.0,167.0,168.0,169.0,169.0,170.0,170.0,171.0,172.0,173.0,173.0,174.0,174.0,175.0,176.0,177.0,177.0,178.0,179.0,179.0,180.0,181.0,182.0,183.0,184.0,185.0,186.0,186.0,187.0,187.0,188.0,189.0,190.0,191.0,191.0,192.0,193.0,194.0,194.0,195.0,196.0,197.0,197.0,199.0,199.0,200.0,201.0,202.0,203.0,205.0,205.0,207.0,208.0,208.0,209.0,210.0,211.0,212.0,213.0,214.0,215.0,215.0,217.0,218.0,219.0,220.0,221.0,222.0,224.0,225.0,226.0,227.0,228.0,229.0,230.0,231.0,231.0,232.0,233.0,235.0,237.0,238.0,239.0,240.0,241.0,243.0,244.0,245.0,246.0,247.0,247.0,248.0,248.0,249.0,249.0,248.0,248.0,248.0,249.0,248.0,248.0,248.0,249.0,248.0,248.0,247.0,248.0,248.0,247.0,247.0,247.0,249.0,248.0,0.0,0.0,167.0,167.0,0.0,245.0,245.0,245.0,245.0,245.0,245.0,245.0,245.0,244.0,244.0,244.0,244.0,243.0,243.0,244.0,243.0,243.0,243.0,243.0,243.0,243.0,243.0,243.0,0.0,0.0,0.0,0.0,0.0,0.0,0.0,0.0,87.0,87.0,0.0,0.0,91.0,89.0,0.0,89.0,91.0,91.0,89.0,87.0,89.0,87.0,89.0,89.0,89.0,89.0,89.0,89.0,89.0,87.0,89.0,87.0,87.0,87.0,89.0,89.0,89.0,91.0,89.0,91.0,91.0,91.0,89.0,89.0,91.0,91.0,91.0,91.0,91.0,89.0,89.0,89.0,91.0,91.0,89.0,89.0,89.0,89.0,89.0,89.0,87.0,89.0,89.0,89.0,0.0,87.0,87.0,87.0,87.0,87.0,87.0,89.0,87.0,87.0,87.0,87.0,89.0,87.0,87.0,87.0,87.0,87.0,87.0,87.0,87.0,87.0,87.0,85.0,85.0,85.0,87.0,87.0,87.0,85.0,85.0,85.0,83.0,81.0,81.0,81.0,81.0,81.0,81.0,83.0,81.0,81.0,81.0,81.0,81.0,81.0,81.0,81.0,81.0,81.0,81.0,81.0,81.0,83.0,83.0,85.0,0.0,129.0,128.0,124.0,120.0,120.0,119.0,119.0,119.0,119.0,119.0,119.0,119.0,119.0,119.0,119.0,119.0,119.0,119.0,119.0,119.0,119.0,119.0,119.0,119.0,119.0,119.0,118.0,118.0,118.0,118.0,118.0,118.0,118.0,118.0,118.0,118.0,118.0,118.0,118.0,118.0,118.0,118.0,118.0,118.0,118.0,118.0,118.0,118.0,118.0,118.0,117.0,118.0,118.0,117.0,117.0,117.0,117.0,117.0,117.0,117.0,117.0,117.0,117.0,117.0,117.0,117.0,117.0,117.0,117.0,117.0,117.0,117.0,116.0,116.0,116.0,116.0,116.0,116.0,116.0,116.0,116.0,116.0,116.0,116.0,116.0,116.0,116.0,116.0,116.0,116.0,116.0,115.0,115.0,115.0,115.0,115.0,115.0,115.0,115.0,115.0,115.0,115.0,115.0,115.0,115.0,115.0,115.0,115.0,115.0,115.0,115.0,115.0,115.0,115.0,114.0,114.0,114.0,114.0,114.0,114.0,114.0,114.0,114.0,114.0,114.0,114.0,114.0,114.0,114.0,114.0,114.0,114.0,114.0,113.0,113.0,113.0,113.0,113.0,113.0,113.0,113.0,113.0,113.0,113.0,113.0,113.0,113.0,113.0,113.0,113.0,113.0,113.0,113.0,112.0,113.0,113.0,113.0,112.0,112.0,112.0,112.0,112.0,112.0,112.0,112.0,112.0,112.0,112.0,112.0,112.0,112.0,111.0,111.0,111.0,111.0,111.0,111.0,111.0,111.0,111.0,111.0,111.0,111.0,110.0,111.0,111.0,111.0,110.0,110.0,110.0,110.0,110.0,110.0,0.0
0.0,153.0,153.0,153.0,152.0,152.0,153.0,153.0,153.0,152.0,151.0,152.0,152.0,153.0,153.0,152.0,152.0,152.0,152.0,152.0,152.0,152.0,152.0,152.0,152.0,151.0,151.0,151.0,151.0,150.0,150.0,150.0,151.0,152.0,153.0,154.0,154.0,155.0,155.0,156.0,156.0,157.0,157.0,158.0,159.0,159.0,160.0,160.0,161.0,162.0,162.0,163.0,164.0,165.0,166.0,166.0,166.0,167.0,168.0,168.0,169.0,169.0,170.0,171.0,171.0,172.0,173.0,174.0,174.0,175.0,176.0,177.0,178.0,178.0,179.0,180.0,180.0,181.0,183.0,183.0,184.0,185.0,186.0,186.0,186.0,187.0,188.0,189.0,190.0,191.0,191.0,192.0,193.0,194.0,195.0,196.0,196.0,197.0,197.0,198.0,199.0,201.0,201.0,202.0,203.0,205.0,206.0,207.0,208.0,208.0,209.0,210.0,211.0,212.0,213.0,214.0,215.0,215.0,216.0,218.0,219.0,220.0,221.0,222.0,223.0,224.0,226.0,227.0,228.0,229.0,230.0,230.0,231.0,232.0,234.0,236.0,237.0,238.0,239.0,240.0,242.0,243.0,244.0,245.0,246.0,247.0,248.0,248.0,249.0,249.0,249.0,248.0,248.0,248.0,248.0,248.0,248.0,249.0,249.0,248.0,248.0,248.0,248.0,248.0,248.0,247.0,247.0,248.0,250.0,0.0,0.0,167.0,167.0,0.0,245.0,245.0,246.0,245.0,245.0,245.0,245.0,245.0,245.0,245.0,244.0,244.0,244.0,244.0,244.0,243.0,243.0,243.0,243.0,243.0,243.0,243.0,242.0,242.0,0.0,0.0,0.0,0.0,0.0,0.0,0.0,0.0,0.0,0.0,0.0,0.0,0.0,89.0,89.0,89.0,89.0,89.0,89.0,89.0,87.0,89.0,89.0,89.0,89.0,89.0,89.0,89.0,89.0,89.0,87.0,87.0,87.0,89.0,89.0,91.0,93.0,95.0,95.0,95.0,95.0,93.0,93.0,93.0,95.0,95.0,95.0,0.0,95.0,95.0,95.0,95.0,97.0,95.0,95.0,95.0,95.0,95.0,95.0,95.0,95.0,93.0,95.0,95.0,95.0,93.0,93.0,93.0,91.0,91.0,93.0,93.0,93.0,93.0,93.0,93.0,91.0,91.0,91.0,91.0,91.0,91.0,91.0,91.0,91.0,91.0,89.0,91.0,91.0,91.0,91.0,91.0,91.0,91.0,87.0,83.0,81.0,81.0,81.0,81.0,81.0,81.0,81.0,81.0,81.0,81.0,81.0,81.0,81.0,81.0,81.0,81.0,81.0,81.0,81.0,81.0,83.0,83.0,85.0,0.0,130.0,128.0,124.0,120.0,120.0,120.0,119.0,119.0,119.0,119.0,119.0,119.0,119.0,119.0,119.0,119.0,119.0,119.0,119.0,119.0,119.0,119.0,119.0,119.0,119.0,119.0,118.0,118.0,118.0,118.0,118.0,118.0,118.0,118.0,118.0,118.0,118.0,118.0,118.0,118.0,118.0,118.0,118.0,118.0,118.0,118.0,118.0,118.0,118.0,118.0,117.0,117.0,118.0,117.0,117.0,117.0,117.0,117.0,117.0,117.0,117.0,117.0,117.0,117.0,117.0,117.0,117.0,117.0,117.0,117.0,117.0,117.0,116.0,116.0,116.0,116.0,116.0,116.0,116.0,116.0,116.0,116.0,116.0,116.0,116.0,116.0,116.0,116.0,116.0,116.0,116.0,115.0,115.0,115.0,115.0,115.0,115.0,115.0,115.0,115.0,115.0,115.0,115.0,115.0,115.0,115.0,115.0,115.0,115.0,115.0,115.0,115.0,115.0,115.0,115.0,114.0,114.0,114.0,114.0,114.0,114.0,114.0,114.0,114.0,114.0,114.0,114.0,114.0,114.0,114.0,114.0,114.0,114.0,114.0,113.0,113.0,113.0,113.0,113.0,113.0,113.0,113.0,113.0,113.0,113.0,113.0,113.0,113.0,113.0,113.0,113.0,113.0,112.0,112.0,113.0,113.0,113.0,112.0,112.0,112.0,112.0,112.0,112.0,112.0,112.0,112.0,112.0,112.0,112.0,112.0,111.0,111.0,111.0,111.0,111.0,111.0,111.0,111.0,111.0,111.0,111.0,111.0,111.0,110.0,110.0,110.0,111.0,110.0,110.0,110.0,110.0,110.0,110.0,0.0
0.0,153.0,153.0,153.0,152.0,153.0,152.0,152.0,152.0,152.0,152.0,152.0,153.0,153.0,153.0,152.0,152.0,152.0,152.0,152.0,152.0,153.0,152.0,152.0,152.0,151.0,151.0,151.0,150.0,150.0,150.0,150.0,150.0,152.0,153.0,154.0,154.0,155.0,155.0,156.0,156.0,157.0,157.0,158.0,159.0,160.0,160.0,160.0,161.0,162.0,163.0,164.0,165.0,165.0,166.0,166.0,166.0,167.0,168.0,168.0,169.0,169.0,170.0,171.0,172.0,173.0,173.0,174.0,174.0,175.0,176.0,177.0,178.0,178.0,179.0,180.0,181.0,181.0,183.0,183.0,184.0,185.0,185.0,186.0,187.0,187.0,188.0,189.0,190.0,191.0,191.0,192.0,192.0,194.0,194.0,196.0,196.0,197.0,197.0,199.0,200.0,201.0,202.0,203.0,203.0,204.0,205.0,206.0,207.0,208.0,209.0,210.0,211.0,212.0,213.0,214.0,215.0,215.0,216.0,218.0,219.0,220.0,221.0,222.0,223.0,224.0,226.0,227.0,228.0,228.0,229.0,229.0,230.0,232.0,234.0,236.0,237.0,238.0,239.0,241.0,242.0,243.0,244.0,245.0,246.0,247.0,248.0,248.0,248.0,248.0,248.0,248.0,248.0,248.0,248.0,248.0,249.0,249.0,249.0,248.0,248.0,248.0,248.0,248.0,248.0,247.0,247.0,247.0,0.0,0.0,0.0,167.0,167.0,0.0,246.0,246.0,246.0,246.0,245.0,245.0,245.0,245.0,244.0,245.0,244.0,244.0,244.0,244.0,244.0,244.0,243.0,243.0,243.0,243.0,243.0,242.0,242.0,242.0,0.0,0.0,0.0,0.0,0.0,0.0,0.0,0.0,0.0,0.0,91.0,0.0,0.0,0.0,91.0,91.0,89.0,89.0,89.0,89.0,89.0,89.0,89.0,89.0,89.0,89.0,89.0,89.0,87.0,87.0,87.0,87.0,87.0,89.0,91.0,93.0,95.0,95.0,97.0,97.0,97.0,95.0,95.0,95.0,97.0,97.0,97.0,97.0,97.0,99.0,97.0,99.0,97.0,97.0,97.0,97.0,97.0,97.0,97.0,97.0,97.0,97.0,95.0,97.0,95.0,95.0,95.0,95.0,93.0,93.0,95.0,95.0,95.0,95.0,95.0,93.0,93.0,93.0,93.0,93.0,93.0,93.0,93.0,93.0,93.0,93.0,91.0,91.0,91.0,93.0,91.0,91.0,91.0,91.0,89.0,83.0,81.0,81.0,81.0,81.0,81.0,81.0,81.0,81.0,81.0,81.0,81.0,81.0,81.0,81.0,81.0,81.0,81.0,81.0,81.0,81.0,83.0,83.0,85.0,0.0,129.0,128.0,124.0,120.0,120.0,119.0,119.0,119.0,119.0,119.0,119.0,119.0,119.0,119.0,119.0,119.0,119.0,119.0,119.0,119.0,119.0,119.0,119.0,119.0,119.0,118.0,118.0,118.0,119.0,119.0,119.0,118.0,118.0,118.0,118.0,118.0,118.0,118.0,118.0,118.0,118.0,118.0,118.0,118.0,118.0,118.0,118.0,118.0,118.0,117.0,117.0,117.0,117.0,117.0,117.0,117.0,117.0,117.0,117.0,117.0,117.0,117.0,117.0,117.0,117.0,117.0,117.0,117.0,117.0,117.0,116.0,117.0,116.0,116.0,116.0,116.0,116.0,116.0,116.0,116.0,116.0,116.0,116.0,116.0,116.0,116.0,116.0,116.0,116.0,115.0,116.0,115.0,115.0,115.0,115.0,115.0,115.0,115.0,115.0,115.0,115.0,115.0,115.0,115.0,115.0,115.0,115.0,115.0,115.0,115.0,115.0,115.0,114.0,114.0,114.0,114.0,114.0,114.0,114.0,114.0,114.0,114.0,114.0,114.0,114.0,114.0,114.0,114.0,114.0,114.0,114.0,114.0,114.0,114.0,113.0,113.0,113.0,113.0,113.0,113.0,113.0,113.0,113.0,113.0,113.0,113.0,113.0,113.0,113.0,113.0,113.0,113.0,113.0,113.0,113.0,113.0,112.0,112.0,112.0,112.0,112.0,112.0,112.0,112.0,112.0,112.0,112.0,112.0,112.0,112.0,112.0,112.0,111.0,111.0,111.0,111.0,111.0,111.0,111.0,111.0,111.0,111.0,111.0,110.0,110.0,110.0,111.0,111.0,111.0,110.0,110.0,110.0,110.0,0.0
0.0,153.0,152.0,153.0,153.0,153.0,152.0,152.0,152.0,152.0,152.0,152.0,153.0,153.0,153.0,152.0,152.0,152.0,152.0,152.0,152.0,152.0,151.0,151.0,152.0,151.0,151.0,151.0,151.0,151.0,151.0,151.0,150.0,151.0,152.0,154.0,154.0,155.0,155.0,156.0,156.0,157.0,158.0,158.0,159.0,160.0,160.0,161.0,162.0,162.0,163.0,164.0,165.0,165.0,166.0,166.0,166.0,167.0,168.0,169.0,169.0,170.0,171.0,171.0,172.0,173.0,173.0,173.0,174.0,175.0,177.0,177.0,178.0,179.0,180.0,180.0,181.0,182.0,182.0,183.0,183.0,184.0,185.0,186.0,187.0,187.0,188.0,189.0,190.0,191.0,191.0,192.0,193.0,193.0,194.0,196.0,196.0,197.0,198.0,199.0,200.0,201.0,202.0,203.0,203.0,204.0,205.0,206.0,207.0,208.0,209.0,210.0,211.0,212.0,213.0,214.0,215.0,215.0,216.0,218.0,219.0,220.0,221.0,222.0,223.0,224.0,225.0,227.0,227.0,227.0,228.0,229.0,231.0,233.0,234.0,236.0,237.0,238.0,239.0,241.0,242.0,243.0,244.0,245.0,246.0,247.0,248.0,248.0,248.0,248.0,248.0,248.0,248.0,248.0,248.0,248.0,248.0,248.0,248.0,248.0,248.0,248.0,248.0,248.0,248.0,248.0,248.0,249.0,0.0,0.0,0.0,166.0,166.0,0.0,246.0,246.0,246.0,245.0,245.0,245.0,245.0,245.0,244.0,244.0,244.0,244.0,244.0,244.0,244.0,244.0,243.0,242.0,243.0,243.0,243.0,242.0,242.0,241.0,238.0,0.0,0.0,0.0,0.0,0.0,0.0,0.0,0.0,0.0,0.0,0.0,0.0,0.0,91.0,91.0,91.0,89.0,89.0,89.0,89.0,89.0,89.0,89.0,89.0,89.0,89.0,89.0,87.0,87.0,87.0,87.0,87.0,89.0,91.0,95.0,95.0,97.0,97.0,97.0,97.0,97.0,95.0,97.0,97.0,97.0,97.0,97.0,97.0,99.0,99.0,99.0,99.0,99.0,97.0,99.0,99.0,97.0,97.0,97.0,97.0,97.0,97.0,97.0,97.0,95.0,95.0,95.0,95.0,95.0,95.0,95.0,95.0,95.0,95.0,95.0,93.0,93.0,93.0,93.0,93.0,93.0,93.0,93.0,93.0,93.0,91.0,91.0,91.0,93.0,91.0,91.0,91.0,91.0,0.0,83.0,81.0,81.0,81.0,81.0,81.0,81.0,81.0,81.0,81.0,81.0,81.0,81.0,81.0,81.0,81.0,81.0,81.0,81.0,81.0,81.0,83.0,85.0,87.0,0.0,129.0,128.0,124.0,120.0,120.0,120.0,119.0,119.0,119.0,119.0,119.0,119.0,119.0,119.0,119.0,119.0,119.0,119.0,119.0,119.0,119.0,119.0,119.0,119.0,119.0,119.0,119.0,119.0,119.0,118.0,119.0,118.0,118.0,118.0,118.0,118.0,118.0,118.0,118.0,118.0,118.0,118.0,118.0,118.0,118.0,118.0,118.0,118.0,118.0,117.0,117.0,117.0,117.0,117.0,117.0,117.0,117.0,117.0,117.0,117.0,117.0,117.0,117.0,117.0,117.0,117.0,117.0,117.0,117.0,117.0,116.0,116.0,116.0,116.0,116.0,116.0,116.0,116.0,116.0,116.0,116.0,116.0,116.0,116.0,116.0,116.0,116.0,116.0,116.0,116.0,116.0,115.0,115.0,115.0,115.0,115.0,115.0,115.0,115.0,115.0,115.0,115.0,115.0,115.0,115.0,115.0,115.0,115.0,115.0,115.0,115.0,115.0,114.0,114.0,114.0,114.0,114.0,114.0,114.0,114.0,114.0,114.0,114.0,114.0,114.0,114.0,114.0,114.0,114.0,114.0,114.0,114.0,114.0,113.0,113.0,113.0,113.0,113.0,113.0,113.0,113.0,113.0,113.0,113.0,113.0,113.0,113.0,113.0,113.0,113.0,113.0,113.0,113.0,113.0,113.0,112.0,112.0,112.0,112.0,112.0,112.0,112.0,112.0,112.0,112.0,112.0,112.0,112.0,112.0,112.0,112.0,112.0,111.0,111.0,111.0,111.0,111.0,111.0,111.0,111.0,111.0,111.0,111.0,110.0,110.0,110.0,111.0,111.0,111.0,110.0,110.0,110.0,110.0,0.0
0.0,152.0,152.0,153.0,153.0,153.0,152.0,153.0,153.0,153.0,152.0,152.0,153.0,153.0,153.0,152.0,152.0,152.0,153.0,152.0,152.0,151.0,151.0,151.0,151.0,150.0,151.0,151.0,151.0,151.0,151.0,151.0,151.0,151.0,152.0,153.0,153.0,154.0,155.0,155.0,156.0,157.0,158.0,159.0,159.0,159.0,161.0,161.0,162.0,162.0,162.0,163.0,164.0,165.0,165.0,166.0,166.0,167.0,168.0,169.0,169.0,170.0,171.0,171.0,172.0,173.0,173.0,174.0,174.0,175.0,177.0,177.0,178.0,179.0,180.0,180.0,180.0,181.0,182.0,183.0,183.0,184.0,185.0,186.0,187.0,188.0,188.0,189.0,190.0,191.0,191.0,192.0,193.0,193.0,194.0,195.0,197.0,197.0,198.0,199.0,200.0,201.0,202.0,203.0,203.0,204.0,205.0,207.0,208.0,208.0,209.0,210.0,211.0,212.0,213.0,214.0,215.0,216.0,217.0,218.0,219.0,220.0,220.0,222.0,223.0,224.0,225.0,226.0,227.0,227.0,228.0,229.0,231.0,233.0,234.0,235.0,237.0,238.0,239.0,241.0,242.0,243.0,244.0,245.0,246.0,247.0,247.0,248.0,248.0,248.0,248.0,248.0,248.0,248.0,248.0,247.0,248.0,248.0,248.0,248.0,248.0,247.0,248.0,247.0,248.0,247.0,248.0,247.0,0.0,0.0,0.0,166.0,166.0,0.0,246.0,246.0,245.0,245.0,0.0,245.0,0.0,245.0,244.0,243.0,244.0,244.0,243.0,243.0,243.0,242.0,242.0,242.0,241.0,243.0,242.0,242.0,241.0,242.0,0.0,0.0,0.0,0.0,0.0,0.0,0.0,0.0,0.0,0.0,0.0,0.0,0.0,0.0,89.0,91.0,91.0,91.0,89.0,89.0,89.0,87.0,87.0,89.0,89.0,89.0,87.0,89.0,89.0,89.0,87.0,87.0,87.0,89.0,91.0,93.0,0.0,97.0,97.0,97.0,97.0,97.0,97.0,0.0,0.0,0.0,0.0,0.0,0.0,99.0,0.0,0.0,0.0,97.0,0.0,97.0,0.0,0.0,0.0,0.0,0.0,0.0,0.0,0.0,0.0,0.0,95.0,0.0,0.0,0.0,0.0,0.0,0.0,0.0,0.0,95.0,0.0,0.0,0.0,0.0,95.0,0.0,93.0,0.0,0.0,0.0,0.0,0.0,93.0,0.0,0.0,0.0,93.0,91.0,0.0,83.0,81.0,81.0,81.0,81.0,81.0,81.0,81.0,81.0,81.0,81.0,81.0,81.0,81.0,81.0,81.0,81.0,81.0,81.0,81.0,81.0,83.0,85.0,0.0,0.0,129.0,128.0,124.0,120.0,120.0,119.0,119.0,119.0,119.0,119.0,119.0,119.0,119.0,119.0,119.0,119.0,119.0,119.0,119.0,119.0,119.0,119.0,119.0,119.0,119.0,119.0,119.0,118.0,118.0,118.0,118.0,118.0,118.0,118.0,118.0,118.0,118.0,118.0,118.0,118.0,118.0,118.0,118.0,118.0,118.0,118.0,118.0,118.0,117.0,117.0,117.0,117.0,117.0,117.0,117.0,117.0,117.0,117.0,117.0,117.0,117.0,117.0,117.0,117.0,117.0,117.0,117.0,117.0,117.0,117.0,116.0,116.0,116.0,116.0,116.0,116.0,116.0,116.0,116.0,116.0,116.0,116.0,116.0,116.0,116.0,116.0,116.0,116.0,116.0,116.0,116.0,116.0,115.0,115.0,115.0,115.0,115.0,115.0,115.0,115.0,115.0,115.0,115.0,115.0,115.0,115.0,115.0,115.0,115.0,115.0,115.0,114.0,114.0,114.0,114.0,114.0,114.0,114.0,114.0,114.0,114.0,114.0,114.0,114.0,114.0,114.0,114.0,114.0,114.0,114.0,114.0,114.0,114.0,113.0,113.0,113.0,113.0,113.0,113.0,113.0,113.0,113.0,113.0,113.0,113.0,113.0,113.0,113.0,113.0,113.0,113.0,113.0,113.0,113.0,112.0,112.0,112.0,112.0,112.0,112.0,112.0,112.0,112.0,112.0,112.0,112.0,112.0,112.0,112.0,112.0,112.0,112.0,111.0,111.0,111.0,111.0,111.0,111.0,111.0,111.0,111.0,111.0,111.0,110.0,110.0,110.0,110.0,110.0,110.0,110.0,110.0,110.0,110.0,0.0
0.0,152.0,153.0,154.0,154.0,153.0,153.0,152.0,153.0,153.0,152.0,152.0,152.0,153.0,153.0,152.0,152.0,152.0,153.0,152.0,152.0,151.0,151.0,151.0,151.0,151.0,151.0,150.0,150.0,150.0,151.0,151.0,151.0,152.0,153.0,153.0,154.0,154.0,155.0,155.0,156.0,157.0,158.0,158.0,159.0,159.0,160.0,161.0,162.0,162.0,162.0,163.0,164.0,165.0,165.0,166.0,167.0,168.0,168.0,169.0,169.0,170.0,171.0,171.0,172.0,173.0,173.0,174.0,174.0,175.0,176.0,177.0,178.0,178.0,179.0,180.0,180.0,181.0,182.0,183.0,183.0,184.0,185.0,186.0,187.0,187.0,188.0,189.0,190.0,191.0,191.0,192.0,193.0,193.0,194.0,195.0,197.0,198.0,198.0,199.0,200.0,201.0,202.0,203.0,203.0,204.0,205.0,206.0,207.0,208.0,209.0,210.0,211.0,212.0,213.0,214.0,215.0,216.0,217.0,219.0,220.0,220.0,221.0,222.0,223.0,224.0,225.0,226.0,226.0,227.0,228.0,230.0,232.0,233.0,234.0,235.0,236.0,238.0,239.0,240.0,242.0,243.0,244.0,245.0,246.0,247.0,248.0,248.0,248.0,248.0,248.0,248.0,248.0,248.0,248.0,247.0,248.0,248.0,248.0,248.0,247.0,247.0,247.0,247.0,247.0,247.0,247.0,247.0,248.0,0.0,0.0,0.0,166.0,167.0,0.0,0.0,0.0,0.0,0.0,0.0,0.0,0.0,0.0,0.0,0.0,0.0,0.0,0.0,0.0,0.0,0.0,0.0,0.0,0.0,0.0,0.0,0.0,0.0,0.0,161.0,157.0,0.0,0.0,161.0,0.0,0.0,0.0,0.0,0.0,0.0,0.0,0.0,0.0,0.0,0.0,0.0,0.0,0.0,0.0,0.0,87.0,87.0,87.0,87.0,89.0,89.0,89.0,89.0,87.0,87.0,87.0,87.0,89.0,0.0,0.0,99.0,97.0,97.0,0.0,0.0,0.0,185.0,0.0,0.0,0.0,0.0,0.0,0.0,0.0,0.0,0.0,0.0,0.0,0.0,0.0,0.0,0.0,0.0,0.0,0.0,0.0,0.0,0.0,0.0,0.0,0.0,0.0,0.0,179.0,0.0,0.0,0.0,0.0,0.0,0.0,0.0,0.0,0.0,0.0,0.0,0.0,0.0,0.0,0.0,0.0,0.0,0.0,0.0,0.0,0.0,93.0,91.0,0.0,83.0,81.0,81.0,81.0,81.0,81.0,81.0,81.0,81.0,81.0,81.0,81.0,81.0,81.0,81.0,81.0,81.0,81.0,81.0,81.0,81.0,83.0,85.0,0.0,0.0,129.0,128.0,124.0,120.0,120.0,119.0,119.0,119.0,119.0,119.0,119.0,119.0,119.0,119.0,119.0,119.0,119.0,119.0,119.0,119.0,119.0,119.0,119.0,119.0,119.0,119.0,119.0,118.0,118.0,118.0,118.0,118.0,118.0,118.0,118.0,118.0,118.0,118.0,118.0,118.0,118.0,118.0,118.0,118.0,118.0,118.0,118.0,117.0,117.0,118.0,117.0,117.0,117.0,117.0,117.0,117.0,117.0,117.0,117.0,117.0,117.0,117.0,117.0,117.0,117.0,117.0,117.0,117.0,117.0,116.0,116.0,116.0,116.0,116.0,116.0,116.0,116.0,116.0,116.0,116.0,116.0,116.0,116.0,116.0,116.0,116.0,116.0,116.0,115.0,116.0,116.0,116.0,115.0,115.0,115.0,115.0,115.0,115.0,115.0,115.0,115.0,115.0,115.0,115.0,115.0,115.0,115.0,115.0,115.0,115.0,115.0,114.0,114.0,114.0,114.0,114.0,114.0,114.0,114.0,114.0,114.0,114.0,114.0,114.0,114.0,114.0,114.0,114.0,114.0,113.0,114.0,114.0,113.0,113.0,113.0,113.0,113.0,113.0,113.0,113.0,113.0,113.0,113.0,113.0,113.0,113.0,112.0,113.0,113.0,113.0,113.0,113.0,113.0,112.0,112.0,112.0,112.0,112.0,112.0,112.0,112.0,112.0,112.0,112.0,112.0,112.0,112.0,112.0,112.0,112.0,111.0,111.0,111.0,111.0,111.0,111.0,111.0,111.0,111.0,111.0,111.0,111.0,111.0,111.0,110.0,110.0,110.0,110.0,110.0,110.0,110.0,110.0,110.0,0.0
0.0,153.0,154.0,154.0,154.0,153.0,152.0,153.0,153.0,153.0,153.0,153.0,152.0,153.0,153.0,153.0,153.0,153.0,152.0,152.0,152.0,151.0,151.0,151.0,151.0,151.0,151.0,151.0,150.0,150.0,150.0,151.0,151.0,152.0,153.0,154.0,154.0,155.0,155.0,155.0,156.0,157.0,157.0,158.0,159.0,159.0,160.0,161.0,161.0,162.0,163.0,163.0,164.0,164.0,165.0,166.0,167.0,168.0,168.0,169.0,169.0,170.0,171.0,171.0,172.0,173.0,174.0,174.0,175.0,175.0,176.0,177.0,178.0,179.0,179.0,180.0,180.0,181.0,183.0,183.0,184.0,184.0,185.0,186.0,186.0,187.0,188.0,189.0,190.0,191.0,191.0,192.0,193.0,193.0,194.0,195.0,196.0,197.0,198.0,199.0,200.0,201.0,202.0,203.0,204.0,204.0,205.0,206.0,207.0,208.0,209.0,210.0,211.0,212.0,213.0,214.0,215.0,216.0,217.0,218.0,220.0,221.0,222.0,222.0,223.0,224.0,225.0,225.0,226.0,227.0,228.0,230.0,231.0,232.0,234.0,235.0,237.0,238.0,239.0,240.0,241.0,243.0,244.0,245.0,246.0,247.0,248.0,248.0,248.0,248.0,248.0,248.0,248.0,248.0,248.0,248.0,248.0,248.0,248.0,248.0,247.0,247.0,247.0,248.0,247.0,247.0,247.0,247.0,248.0,0.0,0.0,0.0,0.0,167.0,166.0,166.0,165.0,165.0,165.0,165.0,165.0,0.0,164.0,164.0,164.0,165.0,166.0,0.0,165.0,165.0,164.0,164.0,164.0,164.0,164.0,164.0,164.0,164.0,164.0,163.0,163.0,163.0,163.0,163.0,163.0,164.0,164.0,164.0,165.0,165.0,0.0,0.0,0.0,0.0,0.0,0.0,0.0,0.0,0.0,0.0,0.0,0.0,0.0,0.0,87.0,89.0,89.0,89.0,87.0,87.0,87.0,87.0,89.0,0.0,0.0,99.0,97.0,97.0,97.0,0.0,0.0,0.0,0.0,0.0,0.0,0.0,0.0,0.0,0.0,0.0,0.0,0.0,0.0,0.0,0.0,0.0,0.0,0.0,0.0,0.0,0.0,0.0,0.0,0.0,0.0,0.0,0.0,0.0,0.0,0.0,0.0,0.0,0.0,0.0,0.0,0.0,0.0,0.0,0.0,0.0,0.0,0.0,0.0,0.0,0.0,0.0,0.0,0.0,0.0,0.0,91.0,91.0,0.0,83.0,81.0,81.0,81.0,81.0,81.0,81.0,81.0,81.0,81.0,81.0,81.0,81.0,81.0,81.0,79.0,79.0,79.0,79.0,79.0,81.0,81.0,83.0,0.0,129.0,129.0,128.0,124.0,120.0,120.0,119.0,119.0,119.0,119.0,119.0,119.0,119.0,119.0,119.0,119.0,119.0,119.0,119.0,119.0,119.0,119.0,119.0,119.0,119.0,118.0,118.0,118.0,118.0,118.0,118.0,118.0,118.0,118.0,118.0,118.0,118.0,118.0,118.0,118.0,118.0,118.0,118.0,118.0,118.0,118.0,118.0,118.0,117.0,117.0,117.0,117.0,117.0,117.0,117.0,117.0,117.0,117.0,117.0,117.0,117.0,117.0,117.0,117.0,117.0,117.0,117.0,117.0,117.0,116.0,116.0,116.0,116.0,116.0,116.0,116.0,116.0,116.0,116.0,116.0,116.0,116.0,116.0,116.0,116.0,116.0,116.0,116.0,115.0,115.0,115.0,116.0,115.0,115.0,115.0,115.0,115.0,115.0,115.0,115.0,115.0,115.0,115.0,115.0,115.0,115.0,115.0,115.0,115.0,115.0,115.0,114.0,114.0,114.0,114.0,114.0,114.0,114.0,114.0,114.0,114.0,114.0,114.0,114.0,114.0,114.0,114.0,114.0,114.0,114.0,113.0,113.0,113.0,114.0,113.0,113.0,113.0,113.0,113.0,113.0,113.0,113.0,113.0,113.0,113.0,113.0,113.0,113.0,113.0,113.0,113.0,113.0,112.0,112.0,112.0,112.0,112.0,112.0,112.0,112.0,112.0,112.0,112.0,112.0,112.0,112.0,112.0,112.0,112.0,111.0,112.0,111.0,111.0,111.0,111.0,111.0,111.0,111.0,111.0,111.0,111.0,111.0,111.0,111.0,110.0,111.0,110.0,110.0,110.0,110.0,110.0,110.0,110.0,110.0,0.0
0.0,154.0,154.0,154.0,155.0,153.0,153.0,152.0,153.0,153.0,153.0,153.0,152.0,152.0,152.0,153.0,153.0,153.0,153.0,152.0,152.0,151.0,151.0,151.0,151.0,151.0,151.0,151.0,151.0,151.0,151.0,151.0,151.0,152.0,153.0,153.0,154.0,154.0,155.0,156.0,156.0,157.0,157.0,158.0,159.0,159.0,160.0,161.0,161.0,162.0,162.0,163.0,164.0,164.0,165.0,166.0,167.0,167.0,168.0,169.0,169.0,170.0,171.0,171.0,172.0,173.0,174.0,174.0,175.0,176.0,176.0,177.0,177.0,178.0,179.0,180.0,180.0,181.0,182.0,184.0,184.0,185.0,185.0,186.0,186.0,187.0,188.0,189.0,190.0,191.0,191.0,192.0,193.0,193.0,195.0,195.0,196.0,197.0,198.0,199.0,200.0,201.0,202.0,203.0,204.0,205.0,205.0,206.0,207.0,208.0,209.0,210.0,211.0,212.0,213.0,214.0,215.0,216.0,217.0,218.0,219.0,221.0,222.0,223.0,223.0,224.0,224.0,225.0,226.0,227.0,229.0,231.0,231.0,232.0,234.0,236.0,237.0,238.0,239.0,240.0,241.0,243.0,244.0,245.0,246.0,247.0,248.0,248.0,248.0,247.0,247.0,248.0,248.0,248.0,248.0,248.0,248.0,248.0,248.0,248.0,247.0,247.0,247.0,248.0,247.0,247.0,247.0,247.0,247.0,248.0,0.0,0.0,0.0,0.0,166.0,166.0,165.0,0.0,0.0,165.0,165.0,165.0,165.0,164.0,0.0,165.0,166.0,166.0,166.0,165.0,164.0,165.0,164.0,165.0,164.0,164.0,164.0,164.0,164.0,163.0,163.0,163.0,163.0,163.0,163.0,164.0,164.0,164.0,165.0,0.0,0.0,159.0,0.0,0.0,0.0,0.0,0.0,0.0,0.0,0.0,0.0,0.0,0.0,0.0,0.0,87.0,87.0,87.0,87.0,87.0,87.0,87.0,89.0,0.0,0.0,95.0,95.0,97.0,97.0,0.0,0.0,0.0,0.0,0.0,0.0,0.0,0.0,0.0,0.0,0.0,0.0,0.0,0.0,0.0,0.0,0.0,0.0,0.0,0.0,0.0,0.0,171.0,0.0,0.0,0.0,0.0,0.0,0.0,0.0,0.0,0.0,0.0,0.0,0.0,0.0,0.0,0.0,0.0,0.0,0.0,0.0,0.0,0.0,0.0,0.0,0.0,0.0,0.0,0.0,0.0,91.0,91.0,0.0,83.0,81.0,81.0,81.0,81.0,81.0,81.0,81.0,81.0,81.0,81.0,81.0,81.0,81.0,79.0,79.0,79.0,79.0,79.0,79.0,81.0,81.0,0.0,0.0,129.0,129.0,128.0,124.0,120.0,120.0,120.0,119.0,119.0,119.0,119.0,119.0,119.0,119.0,119.0,119.0,119.0,119.0,119.0,119.0,119.0,119.0,119.0,119.0,119.0,119.0,118.0,118.0,118.0,118.0,118.0,118.0,118.0,118.0,118.0,118.0,118.0,118.0,118.0,118.0,118.0,118.0,118.0,118.0,118.0,118.0,118.0,118.0,118.0,117.0,117.0,117.0,117.0,117.0,117.0,117.0,117.0,117.0,117.0,117.0,117.0,117.0,117.0,117.0,117.0,117.0,117.0,117.0,117.0,116.0,116.0,116.0,116.0,116.0,116.0,116.0,116.0,116.0,116.0,116.0,116.0,116.0,116.0,116.0,116.0,116.0,116.0,116.0,115.0,115.0,116.0,115.0,115.0,115.0,115.0,115.0,115.0,115.0,115.0,115.0,115.0,115.0,115.0,115.0,115.0,115.0,115.0,115.0,114.0,114.0,115.0,114.0,114.0,114.0,114.0,114.0,114.0,114.0,114.0,114.0,114.0,114.0,114.0,114.0,114.0,114.0,114.0,114.0,114.0,114.0,113.0,113.0,113.0,113.0,114.0,113.0,113.0,113.0,113.0,113.0,113.0,113.0,113.0,113.0,113.0,113.0,113.0,113.0,113.0,113.0,113.0,112.0,112.0,112.0,112.0,112.0,112.0,112.0,112.0,112.0,112.0,112.0,112.0,112.0,112.0,112.0,112.0,112.0,112.0,111.0,111.0,111.0,111.0,111.0,111.0,111.0,111.0,111.0,111.0,111.0,111.0,111.0,110.0,110.0,111.0,111.0,110.0,110.0,110.0,110.0,110.0,110.0,110.0,110.0,0.0
0.0,154.0,154.0,154.0,154.0,154.0,153.0,153.0,153.0,153.0,153.0,153.0,153.0,152.0,152.0,153.0,153.0,153.0,152.0,152.0,152.0,151.0,151.0,150.0,151.0,151.0,151.0,151.0,151.0,150.0,150.0,151.0,151.0,152.0,152.0,153.0,153.0,154.0,155.0,156.0,157.0,157.0,158.0,158.0,159.0,159.0,160.0,161.0,161.0,161.0,162.0,163.0,163.0,164.0,165.0,166.0,166.0,167.0,168.0,169.0,169.0,170.0,170.0,171.0,172.0,173.0,174.0,174.0,175.0,176.0,176.0,177.0,177.0,178.0,179.0,179.0,180.0,181.0,182.0,183.0,184.0,185.0,185.0,186.0,187.0,187.0,188.0,189.0,190.0,190.0,191.0,192.0,193.0,194.0,195.0,195.0,196.0,197.0,198.0,199.0,200.0,201.0,202.0,203.0,204.0,205.0,205.0,206.0,208.0,209.0,210.0,210.0,211.0,212.0,214.0,215.0,215.0,216.0,217.0,218.0,220.0,221.0,222.0,222.0,223.0,223.0,224.0,225.0,226.0,227.0,229.0,231.0,232.0,233.0,234.0,236.0,237.0,238.0,239.0,240.0,241.0,242.0,243.0,244.0,246.0,247.0,247.0,248.0,247.0,247.0,247.0,247.0,247.0,247.0,247.0,248.0,248.0,248.0,248.0,247.0,247.0,247.0,247.0,247.0,247.0,246.0,246.0,246.0,246.0,246.0,0.0,0.0,0.0,0.0,0.0,0.0,0.0,0.0,0.0,0.0,0.0,0.0,0.0,0.0,0.0,0.0,0.0,0.0,0.0,0.0,0.0,0.0,0.0,0.0,0.0,0.0,0.0,0.0,0.0,0.0,0.0,0.0,0.0,0.0,0.0,0.0,0.0,0.0,0.0,0.0,0.0,0.0,0.0,0.0,175.0,0.0,0.0,0.0,0.0,0.0,0.0,0.0,0.0,0.0,0.0,0.0,85.0,87.0,87.0,87.0,87.0,87.0,91.0,0.0,0.0,95.0,97.0,97.0,0.0,0.0,0.0,0.0,0.0,0.0,0.0,0.0,0.0,0.0,0.0,0.0,0.0,0.0,0.0,0.0,0.0,0.0,0.0,0.0,0.0,0.0,0.0,0.0,0.0,0.0,0.0,0.0,0.0,0.0,0.0,0.0,0.0,0.0,179.0,175.0,179.0,0.0,0.0,0.0,0.0,0.0,0.0,0.0,0.0,0.0,0.0,0.0,0.0,0.0,0.0,0.0,93.0,91.0,89.0,83.0,81.0,81.0,81.0,81.0,81.0,81.0,81.0,81.0,81.0,81.0,81.0,81.0,81.0,79.0,79.0,79.0,79.0,79.0,79.0,79.0,81.0,0.0,0.0,129.0,129.0,128.0,124.0,120.0,120.0,119.0,119.0,119.0,119.0,119.0,119.0,119.0,119.0,119.0,119.0,119.0,119.0,119.0,119.0,119.0,119.0,119.0,119.0,119.0,119.0,118.0,118.0,118.0,118.0,118.0,118.0,118.0,118.0,118.0,118.0,118.0,118.0,118.0,118.0,118.0,118.0,118.0,118.0,118.0,118.0,118.0,118.0,118.0,118.0,117.0,117.0,117.0,117.0,117.0,117.0,117.0,117.0,117.0,117.0,117.0,117.0,117.0,117.0,117.0,117.0,117.0,117.0,117.0,116.0,116.0,116.0,116.0,116.0,116.0,116.0,116.0,116.0,116.0,116.0,116.0,116.0,116.0,116.0,116.0,116.0,116.0,116.0,116.0,116.0,115.0,115.0,115.0,115.0,115.0,115.0,115.0,115.0,115.0,115.0,115.0,115.0,115.0,115.0,115.0,115.0,115.0,115.0,114.0,114.0,114.0,114.0,114.0,114.0,114.0,114.0,114.0,114.0,114.0,114.0,114.0,114.0,114.0,114.0,114.0,114.0,114.0,114.0,114.0,114.0,114.0,113.0,113.0,113.0,114.0,113.0,113.0,113.0,113.0,113.0,113.0,113.0,113.0,113.0,113.0,113.0,113.0,113.0,113.0,113.0,113.0,112.0,112.0,112.0,112.0,112.0,112.0,112.0,112.0,112.0,112.0,112.0,112.0,112.0,112.0,112.0,112.0,112.0,112.0,111.0,111.0,111.0,111.0,111.0,111.0,111.0,111.0,111.0,111.0,111.0,111.0,111.0,110.0,111.0,111.0,111.0,110.0,110.0,110.0,110.0,110.0,110.0,110.0,110.0,0.0
0.0,153.0,154.0,153.0,154.0,153.0,153.0,153.0,153.0,153.0,153.0,153.0,152.0,152.0,152.0,152.0,152.0,152.0,152.0,152.0,152.0,152.0,151.0,151.0,151.0,151.0,151.0,151.0,151.0,151.0,151.0,151.0,152.0,152.0,152.0,153.0,153.0,154.0,155.0,156.0,157.0,157.0,158.0,158.0,159.0,160.0,160.0,161.0,161.0,162.0,162.0,163.0,163.0,164.0,165.0,166.0,166.0,166.0,167.0,168.0,169.0,170.0,170.0,171.0,172.0,173.0,173.0,174.0,174.0,176.0,176.0,177.0,177.0,178.0,179.0,180.0,180.0,181.0,182.0,183.0,184.0,184.0,185.0,186.0,186.0,187.0,188.0,189.0,190.0,191.0,191.0,192.0,193.0,194.0,195.0,195.0,196.0,197.0,198.0,199.0,200.0,201.0,202.0,203.0,204.0,204.0,205.0,206.0,208.0,209.0,210.0,210.0,211.0,212.0,214.0,215.0,215.0,216.0,217.0,219.0,220.0,221.0,222.0,222.0,223.0,223.0,224.0,225.0,227.0,228.0,229.0,230.0,231.0,232.0,234.0,234.0,235.0,236.0,237.0,238.0,239.0,240.0,241.0,242.0,244.0,245.0,245.0,246.0,246.0,244.0,245.0,245.0,245.0,245.0,245.0,246.0,246.0,246.0,246.0,245.0,245.0,244.0,245.0,245.0,244.0,244.0,244.0,0.0,0.0,0.0,0.0,0.0,0.0,0.0,0.0,0.0,0.0,0.0,0.0,0.0,0.0,0.0,0.0,0.0,0.0,0.0,235.0,235.0,233.0,0.0,0.0,0.0,234.0,0.0,0.0,0.0,0.0,232.0,0.0,0.0,0.0,0.0,218.0,0.0,0.0,0.0,0.0,0.0,0.0,221.0,0.0,0.0,0.0,0.0,0.0,177.0,0.0,0.0,0.0,0.0,0.0,0.0,0.0,0.0,0.0,0.0,85.0,87.0,87.0,87.0,87.0,89.0,93.0,0.0,0.0,95.0,95.0,95.0,95.0,0.0,0.0,0.0,0.0,0.0,0.0,0.0,0.0,0.0,0.0,0.0,0.0,0.0,0.0,0.0,0.0,0.0,0.0,0.0,0.0,0.0,0.0,0.0,0.0,0.0,0.0,0.0,0.0,0.0,0.0,0.0,0.0,0.0,0.0,0.0,0.0,0.0,0.0,0.0,0.0,0.0,0.0,0.0,0.0,0.0,0.0,0.0,0.0,0.0,0.0,0.0,0.0,91.0,0.0,83.0,81.0,81.0,81.0,81.0,81.0,81.0,81.0,81.0,81.0,81.0,81.0,81.0,81.0,79.0,79.0,79.0,79.0,79.0,79.0,81.0,81.0,85.0,0.0,0.0,129.0,128.0,124.0,120.0,120.0,119.0,119.0,119.0,119.0,119.0,119.0,119.0,119.0,119.0,119.0,119.0,119.0,119.0,119.0,119.0,119.0,119.0,118.0,119.0,119.0,119.0,118.0,118.0,118.0,118.0,118.0,118.0,118.0,118.0,118.0,118.0,118.0,118.0,118.0,118.0,118.0,118.0,118.0,118.0,118.0,118.0,118.0,118.0,118.0,117.0,117.0,117.0,117.0,117.0,117.0,117.0,117.0,117.0,117.0,117.0,117.0,117.0,117.0,117.0,117.0,117.0,117.0,117.0,116.0,116.0,116.0,116.0,116.0,116.0,116.0,116.0,116.0,116.0,116.0,116.0,116.0,116.0,116.0,116.0,116.0,116.0,116.0,116.0,116.0,116.0,115.0,115.0,115.0,115.0,115.0,115.0,115.0,115.0,115.0,115.0,115.0,115.0,115.0,115.0,115.0,115.0,115.0,114.0,115.0,114.0,114.0,114.0,114.0,114.0,114.0,114.0,114.0,114.0,114.0,114.0,114.0,114.0,114.0,114.0,114.0,114.0,114.0,114.0,114.0,114.0,113.0,113.0,113.0,113.0,113.0,113.0,113.0,113.0,113.0,113.0,113.0,113.0,113.0,113.0,113.0,113.0,113.0,113.0,113.0,113.0,113.0,112.0,112.0,112.0,112.0,112.0,112.0,112.0,112.0,112.0,112.0,112.0,112.0,112.0,112.0,112.0,112.0,112.0,111.0,111.0,111.0,111.0,111.0,111.0,111.0,111.0,111.0,111.0,111.0,111.0,111.0,111.0,111.0,111.0,110.0,110.0,110.0,110.0,110.0,110.0,110.0,110.0,110.0,0.0
0.0,153.0,153.0,154.0,153.0,153.0,153.0,153.0,153.0,153.0,152.0,153.0,153.0,153.0,152.0,152.0,152.0,152.0,152.0,151.0,151.0,151.0,151.0,151.0,151.0,152.0,152.0,151.0,151.0,150.0,150.0,151.0,152.0,152.0,152.0,153.0,154.0,154.0,155.0,156.0,156.0,156.0,157.0,159.0,159.0,160.0,160.0,161.0,161.0,162.0,162.0,163.0,163.0,164.0,165.0,165.0,166.0,167.0,168.0,168.0,169.0,169.0,170.0,171.0,172.0,173.0,173.0,174.0,174.0,176.0,176.0,177.0,178.0,178.0,179.0,180.0,181.0,181.0,182.0,183.0,184.0,184.0,185.0,186.0,187.0,187.0,188.0,189.0,190.0,191.0,192.0,192.0,193.0,194.0,195.0,196.0,196.0,197.0,198.0,199.0,200.0,200.0,201.0,202.0,204.0,204.0,205.0,206.0,207.0,208.0,210.0,210.0,211.0,212.0,214.0,215.0,215.0,216.0,217.0,218.0,220.0,221.0,221.0,222.0,222.0,223.0,224.0,225.0,227.0,228.0,229.0,230.0,231.0,232.0,233.0,233.0,234.0,234.0,234.0,235.0,235.0,235.0,234.0,235.0,235.0,234.0,234.0,234.0,235.0,234.0,234.0,234.0,234.0,234.0,234.0,233.0,233.0,233.0,233.0,233.0,234.0,235.0,235.0,234.0,233.0,233.0,232.0,232.0,232.0,232.0,232.0,232.0,231.0,231.0,231.0,231.0,230.0,230.0,231.0,230.0,229.0,229.0,229.0,229.0,229.0,229.0,229.0,229.0,228.0,228.0,228.0,228.0,228.0,228.0,228.0,228.0,228.0,228.0,0.0,0.0,0.0,0.0,0.0,220.0,0.0,0.0,0.0,0.0,0.0,223.0,0.0,0.0,0.0,0.0,0.0,0.0,0.0,0.0,0.0,0.0,0.0,0.0,0.0,0.0,205.0,0.0,87.0,87.0,87.0,87.0,87.0,89.0,91.0,97.0,0.0,95.0,95.0,95.0,0.0,0.0,0.0,0.0,0.0,0.0,0.0,0.0,0.0,0.0,0.0,0.0,0.0,0.0,0.0,0.0,0.0,0.0,0.0,0.0,0.0,0.0,0.0,0.0,0.0,0.0,0.0,0.0,0.0,0.0,0.0,0.0,0.0,0.0,0.0,0.0,0.0,0.0,0.0,0.0,0.0,0.0,0.0,0.0,0.0,0.0,0.0,0.0,0.0,0.0,0.0,0.0,0.0,91.0,0.0,83.0,81.0,81.0,81.0,81.0,81.0,81.0,81.0,81.0,81.0,81.0,81.0,81.0,81.0,79.0,81.0,81.0,81.0,79.0,81.0,81.0,83.0,83.0,0.0,0.0,129.0,128.0,124.0,120.0,120.0,119.0,119.0,119.0,119.0,119.0,119.0,119.0,119.0,119.0,119.0,119.0,119.0,119.0,119.0,119.0,119.0,119.0,118.0,119.0,118.0,118.0,118.0,118.0,118.0,118.0,118.0,118.0,118.0,118.0,118.0,118.0,118.0,118.0,118.0,118.0,118.0,118.0,118.0,118.0,118.0,118.0,118.0,118.0,118.0,117.0,117.0,117.0,117.0,117.0,117.0,117.0,117.0,117.0,117.0,117.0,117.0,117.0,117.0,117.0,117.0,117.0,117.0,117.0,117.0,117.0,116.0,116.0,116.0,116.0,116.0,116.0,116.0,116.0,116.0,116.0,116.0,116.0,116.0,116.0,116.0,116.0,116.0,116.0,116.0,115.0,115.0,115.0,115.0,115.0,115.0,115.0,115.0,115.0,115.0,115.0,115.0,115.0,115.0,115.0,115.0,115.0,115.0,115.0,114.0,114.0,114.0,114.0,114.0,114.0,114.0,114.0,114.0,114.0,114.0,114.0,114.0,114.0,114.0,114.0,114.0,113.0,114.0,114.0,114.0,114.0,114.0,113.0,113.0,113.0,113.0,113.0,113.0,113.0,113.0,113.0,113.0,113.0,113.0,113.0,113.0,113.0,113.0,113.0,113.0,113.0,113.0,112.0,112.0,112.0,112.0,112.0,112.0,112.0,112.0,112.0,112.0,112.0,112.0,112.0,112.0,112.0,112.0,111.0,111.0,111.0,111.0,111.0,111.0,111.0,111.0,111.0,111.0,111.0,111.0,111.0,111.0,111.0,111.0,110.0,110.0,110.0,110.0,110.0,110.0,110.0,110.0,110.0,110.0,0.0
0.0,153.0,153.0,153.0,153.0,152.0,152.0,153.0,153.0,152.0,152.0,152.0,152.0,153.0,152.0,152.0,152.0,152.0,152.0,151.0,151.0,151.0,151.0,151.0,151.0,152.0,152.0,151.0,151.0,150.0,150.0,151.0,151.0,152.0,153.0,154.0,154.0,154.0,154.0,155.0,156.0,156.0,157.0,158.0,159.0,160.0,160.0,161.0,162.0,162.0,163.0,163.0,164.0,164.0,165.0,166.0,166.0,167.0,168.0,169.0,169.0,170.0,170.0,171.0,172.0,173.0,173.0,174.0,174.0,176.0,177.0,178.0,178.0,179.0,179.0,180.0,181.0,182.0,182.0,183.0,184.0,185.0,185.0,186.0,187.0,187.0,188.0,189.0,190.0,191.0,192.0,192.0,193.0,193.0,194.0,196.0,196.0,197.0,198.0,199.0,200.0,200.0,201.0,203.0,204.0,204.0,205.0,206.0,208.0,208.0,209.0,210.0,211.0,212.0,213.0,214.0,215.0,216.0,217.0,218.0,220.0,221.0,221.0,222.0,222.0,223.0,224.0,225.0,227.0,228.0,228.0,229.0,231.0,232.0,233.0,233.0,233.0,233.0,233.0,233.0,233.0,233.0,233.0,233.0,233.0,232.0,232.0,233.0,233.0,233.0,232.0,232.0,233.0,233.0,232.0,232.0,231.0,232.0,232.0,232.0,232.0,232.0,232.0,232.0,232.0,232.0,231.0,231.0,231.0,230.0,230.0,230.0,230.0,230.0,230.0,230.0,229.0,229.0,229.0,229.0,229.0,228.0,228.0,228.0,228.0,229.0,229.0,228.0,228.0,227.0,227.0,227.0,227.0,227.0,227.0,227.0,227.0,227.0,0.0,0.0,0.0,0.0,0.0,219.0,216.0,220.0,219.0,213.0,212.0,222.0,0.0,0.0,0.0,0.0,0.0,0.0,0.0,0.0,0.0,0.0,0.0,91.0,0.0,0.0,200.0,0.0,87.0,87.0,87.0,87.0,87.0,87.0,0.0,0.0,97.0,97.0,95.0,95.0,95.0,0.0,0.0,0.0,0.0,0.0,0.0,0.0,0.0,0.0,0.0,0.0,0.0,0.0,0.0,0.0,0.0,0.0,0.0,0.0,0.0,0.0,0.0,0.0,0.0,0.0,0.0,0.0,0.0,0.0,0.0,0.0,0.0,0.0,0.0,0.0,0.0,0.0,0.0,0.0,0.0,0.0,0.0,0.0,0.0,0.0,0.0,0.0,0.0,0.0,0.0,0.0,0.0,91.0,0.0,83.0,81.0,81.0,81.0,79.0,81.0,81.0,81.0,81.0,81.0,81.0,81.0,81.0,81.0,79.0,81.0,81.0,81.0,79.0,81.0,81.0,83.0,85.0,85.0,0.0,129.0,128.0,125.0,120.0,119.0,119.0,119.0,119.0,119.0,119.0,119.0,119.0,119.0,119.0,119.0,119.0,119.0,119.0,119.0,119.0,119.0,119.0,119.0,118.0,118.0,118.0,118.0,118.0,118.0,118.0,118.0,118.0,118.0,118.0,118.0,118.0,118.0,118.0,118.0,118.0,118.0,118.0,118.0,118.0,118.0,118.0,118.0,117.0,117.0,117.0,117.0,117.0,117.0,117.0,117.0,117.0,117.0,117.0,117.0,117.0,117.0,117.0,117.0,117.0,117.0,117.0,117.0,117.0,117.0,117.0,116.0,116.0,116.0,116.0,116.0,116.0,116.0,116.0,116.0,116.0,116.0,116.0,116.0,116.0,116.0,116.0,116.0,116.0,116.0,115.0,115.0,115.0,115.0,115.0,115.0,115.0,115.0,115.0,115.0,115.0,115.0,115.0,115.0,115.0,115.0,115.0,115.0,115.0,115.0,114.0,114.0,114.0,114.0,114.0,114.0,114.0,114.0,114.0,114.0,114.0,114.0,114.0,114.0,114.0,114.0,113.0,114.0,113.0,114.0,113.0,113.0,113.0,113.0,113.0,113.0,113.0,113.0,113.0,113.0,113.0,113.0,113.0,113.0,113.0,113.0,113.0,113.0,113.0,113.0,113.0,113.0,112.0,112.0,112.0,112.0,112.0,112.0,112.0,112.0,112.0,112.0,112.0,112.0,112.0,112.0,112.0,111.0,111.0,111.0,111.0,111.0,111.0,111.0,111.0,111.0,111.0,111.0,111.0,111.0,111.0,111.0,111.0,111.0,110.0,110.0,110.0,110.0,110.0,110.0,110.0,110.0,110.0,110.0,0.0
0.0,154.0,154.0,153.0,153.0,153.0,153.0,153.0,152.0,152.0,152.0,152.0,152.0,153.0,153.0,152.0,152.0,152.0,152.0,151.0,151.0,151.0,151.0,151.0,150.0,151.0,151.0,151.0,150.0,150.0,150.0,150.0,151.0,152.0,153.0,153.0,154.0,154.0,155.0,155.0,156.0,156.0,157.0,158.0,159.0,160.0,160.0,161.0,161.0,162.0,163.0,163.0,163.0,164.0,165.0,166.0,166.0,167.0,168.0,168.0,169.0,169.0,170.0,171.0,173.0,173.0,174.0,174.0,175.0,175.0,176.0,178.0,178.0,179.0,179.0,180.0,181.0,182.0,182.0,183.0,184.0,184.0,185.0,186.0,187.0,188.0,188.0,189.0,190.0,191.0,192.0,192.0,193.0,193.0,194.0,196.0,197.0,197.0,198.0,199.0,200.0,201.0,202.0,202.0,203.0,204.0,206.0,207.0,208.0,209.0,209.0,210.0,211.0,211.0,213.0,214.0,216.0,216.0,217.0,218.0,219.0,220.0,221.0,221.0,222.0,223.0,224.0,225.0,227.0,228.0,229.0,229.0,231.0,232.0,232.0,232.0,232.0,233.0,232.0,232.0,232.0,233.0,232.0,232.0,232.0,232.0,232.0,232.0,232.0,233.0,232.0,232.0,232.0,232.0,232.0,231.0,231.0,232.0,232.0,231.0,231.0,231.0,231.0,232.0,232.0,231.0,231.0,231.0,230.0,230.0,230.0,230.0,230.0,230.0,230.0,230.0,230.0,229.0,229.0,228.0,229.0,228.0,228.0,228.0,228.0,229.0,228.0,228.0,227.0,227.0,227.0,227.0,227.0,227.0,227.0,227.0,226.0,226.0,225.0,0.0,0.0,0.0,0.0,0.0,0.0,0.0,0.0,211.0,0.0,221.0,0.0,0.0,0.0,0.0,0.0,0.0,0.0,0.0,0.0,0.0,0.0,89.0,0.0,0.0,201.0,200.0,0.0,87.0,87.0,87.0,87.0,87.0,91.0,95.0,0.0,97.0,95.0,95.0,0.0,0.0,0.0,0.0,0.0,0.0,0.0,0.0,0.0,0.0,0.0,0.0,0.0,0.0,0.0,0.0,0.0,0.0,0.0,0.0,0.0,0.0,0.0,0.0,0.0,0.0,0.0,0.0,0.0,0.0,0.0,0.0,0.0,0.0,0.0,0.0,0.0,0.0,0.0,0.0,0.0,0.0,0.0,0.0,0.0,0.0,0.0,0.0,0.0,0.0,0.0,0.0,91.0,91.0,0.0,83.0,81.0,81.0,81.0,81.0,81.0,81.0,81.0,81.0,81.0,81.0,81.0,81.0,81.0,81.0,81.0,81.0,79.0,79.0,79.0,81.0,83.0,85.0,85.0,130.0,129.0,128.0,125.0,120.0,119.0,119.0,119.0,119.0,119.0,119.0,119.0,119.0,119.0,119.0,119.0,119.0,119.0,119.0,119.0,119.0,119.0,119.0,119.0,118.0,118.0,118.0,118.0,118.0,118.0,118.0,118.0,118.0,118.0,118.0,118.0,118.0,118.0,118.0,118.0,118.0,118.0,118.0,118.0,118.0,118.0,118.0,117.0,117.0,117.0,117.0,117.0,117.0,117.0,117.0,117.0,117.0,117.0,117.0,117.0,117.0,117.0,117.0,117.0,117.0,117.0,117.0,117.0,117.0,117.0,117.0,116.0,116.0,116.0,116.0,116.0,116.0,116.0,116.0,116.0,116.0,116.0,116.0,116.0,116.0,116.0,116.0,116.0,116.0,115.0,115.0,115.0,115.0,115.0,115.0,115.0,115.0,115.0,115.0,115.0,115.0,115.0,115.0,115.0,115.0,115.0,115.0,115.0,115.0,114.0,114.0,114.0,114.0,114.0,114.0,114.0,114.0,114.0,114.0,114.0,114.0,114.0,114.0,114.0,114.0,114.0,113.0,114.0,113.0,113.0,113.0,113.0,113.0,113.0,113.0,113.0,113.0,113.0,113.0,113.0,113.0,113.0,113.0,113.0,113.0,113.0,113.0,113.0,113.0,113.0,112.0,112.0,112.0,112.0,112.0,112.0,112.0,112.0,112.0,112.0,112.0,112.0,112.0,112.0,112.0,112.0,111.0,111.0,111.0,111.0,111.0,111.0,111.0,111.0,111.0,111.0,111.0,111.0,111.0,111.0,111.0,111.0,111.0,111.0,110.0,110.0,110.0,110.0,110.0,110.0,110.0,110.0,110.0,110.0,0.0
0.0,154.0,154.0,153.0,152.0,153.0,153.0,152.0,152.0,152.0,152.0,152.0,152.0,152.0,152.0,152.0,152.0,152.0,152.0,152.0,151.0,151.0,152.0,151.0,151.0,151.0,151.0,151.0,151.0,151.0,150.0,150.0,151.0,152.0,153.0,154.0,154.0,155.0,155.0,156.0,156.0,156.0,157.0,158.0,159.0,160.0,160.0,161.0,161.0,162.0,163.0,163.0,164.0,165.0,165.0,166.0,167.0,167.0,168.0,168.0,169.0,169.0,170.0,171.0,172.0,173.0,174.0,175.0,175.0,176.0,176.0,177.0,178.0,179.0,180.0,180.0,181.0,181.0,182.0,183.0,184.0,184.0,185.0,186.0,187.0,187.0,188.0,189.0,190.0,191.0,192.0,193.0,193.0,193.0,194.0,195.0,196.0,197.0,198.0,199.0,200.0,201.0,202.0,203.0,204.0,205.0,206.0,206.0,208.0,209.0,210.0,210.0,211.0,212.0,213.0,214.0,215.0,217.0,217.0,218.0,219.0,220.0,220.0,221.0,222.0,223.0,225.0,226.0,227.0,228.0,229.0,230.0,231.0,231.0,232.0,232.0,232.0,233.0,233.0,233.0,232.0,233.0,232.0,232.0,232.0,232.0,232.0,232.0,232.0,233.0,233.0,232.0,232.0,232.0,232.0,232.0,231.0,232.0,232.0,231.0,231.0,231.0,232.0,232.0,232.0,231.0,231.0,231.0,230.0,230.0,230.0,230.0,230.0,230.0,230.0,229.0,229.0,229.0,229.0,229.0,229.0,229.0,228.0,228.0,229.0,229.0,228.0,228.0,227.0,228.0,227.0,227.0,227.0,227.0,227.0,226.0,226.0,225.0,225.0,0.0,0.0,0.0,0.0,0.0,0.0,0.0,0.0,0.0,0.0,0.0,0.0,0.0,0.0,0.0,177.0,0.0,0.0,0.0,0.0,0.0,89.0,0.0,0.0,216.0,0.0,201.0,0.0,85.0,87.0,87.0,87.0,89.0,93.0,0.0,99.0,99.0,97.0,97.0,97.0,0.0,0.0,0.0,0.0,0.0,0.0,0.0,0.0,0.0,0.0,0.0,0.0,0.0,0.0,0.0,0.0,0.0,0.0,0.0,0.0,0.0,0.0,0.0,0.0,0.0,0.0,0.0,0.0,0.0,0.0,0.0,0.0,0.0,0.0,0.0,0.0,0.0,0.0,0.0,0.0,0.0,0.0,0.0,0.0,0.0,0.0,0.0,0.0,0.0,0.0,0.0,91.0,91.0,0.0,83.0,81.0,81.0,81.0,81.0,81.0,81.0,81.0,81.0,81.0,81.0,81.0,81.0,81.0,79.0,79.0,79.0,79.0,79.0,79.0,81.0,83.0,83.0,0.0,130.0,0.0,128.0,125.0,120.0,119.0,119.0,119.0,119.0,119.0,119.0,119.0,119.0,119.0,119.0,119.0,119.0,119.0,119.0,119.0,119.0,119.0,119.0,119.0,118.0,118.0,118.0,118.0,118.0,118.0,118.0,118.0,118.0,118.0,118.0,118.0,118.0,118.0,118.0,118.0,118.0,118.0,118.0,118.0,118.0,118.0,117.0,117.0,117.0,117.0,117.0,117.0,117.0,117.0,117.0,117.0,117.0,117.0,117.0,117.0,117.0,117.0,117.0,117.0,117.0,117.0,117.0,117.0,117.0,116.0,116.0,116.0,116.0,116.0,116.0,116.0,116.0,116.0,116.0,116.0,116.0,116.0,116.0,116.0,116.0,116.0,116.0,116.0,115.0,115.0,115.0,115.0,115.0,115.0,115.0,115.0,115.0,115.0,115.0,115.0,115.0,115.0,115.0,115.0,115.0,115.0,115.0,115.0,114.0,114.0,114.0,114.0,114.0,114.0,114.0,114.0,114.0,114.0,114.0,114.0,114.0,114.0,114.0,114.0,114.0,114.0,114.0,114.0,113.0,113.0,114.0,113.0,113.0,113.0,113.0,113.0,113.0,113.0,113.0,113.0,113.0,113.0,113.0,113.0,113.0,113.0,113.0,113.0,113.0,113.0,113.0,113.0,112.0,112.0,112.0,112.0,112.0,112.0,112.0,112.0,112.0,112.0,112.0,112.0,112.0,112.0,111.0,111.0,111.0,111.0,111.0,111.0,111.0,111.0,111.0,111.0,111.0,111.0,111.0,111.0,111.0,111.0,111.0,111.0,111.0,111.0,110.0,110.0,110.0,110.0,110.0,110.0,110.0,110.0,0.0
0.0,154.0,153.0,153.0,153.0,153.0,153.0,152.0,152.0,152.0,152.0,152.0,152.0,152.0,152.0,152.0,152.0,152.0,151.0,151.0,151.0,151.0,151.0,151.0,151.0,151.0,151.0,152.0,151.0,151.0,151.0,150.0,150.0,152.0,153.0,154.0,154.0,155.0,155.0,155.0,156.0,157.0,157.0,158.0,159.0,160.0,160.0,161.0,161.0,162.0,163.0,163.0,164.0,165.0,165.0,166.0,166.0,167.0,167.0,168.0,168.0,169.0,170.0,171.0,172.0,173.0,174.0,174.0,175.0,176.0,176.0,177.0,178.0,179.0,180.0,180.0,181.0,181.0,182.0,183.0,184.0,184.0,185.0,186.0,186.0,187.0,188.0,189.0,190.0,191.0,192.0,193.0,193.0,194.0,194.0,195.0,196.0,197.0,198.0,199.0,200.0,201.0,202.0,203.0,204.0,205.0,206.0,206.0,208.0,209.0,210.0,211.0,211.0,213.0,213.0,214.0,216.0,217.0,218.0,218.0,219.0,219.0,220.0,221.0,222.0,224.0,225.0,226.0,227.0,228.0,229.0,230.0,231.0,232.0,232.0,232.0,233.0,234.0,233.0,233.0,233.0,233.0,233.0,233.0,233.0,232.0,233.0,233.0,233.0,233.0,233.0,233.0,232.0,232.0,232.0,232.0,232.0,232.0,232.0,231.0,231.0,231.0,232.0,232.0,232.0,231.0,231.0,231.0,230.0,230.0,230.0,230.0,230.0,230.0,230.0,230.0,230.0,229.0,229.0,229.0,229.0,229.0,229.0,229.0,229.0,229.0,228.0,228.0,228.0,228.0,228.0,228.0,227.0,227.0,227.0,227.0,226.0,226.0,224.0,0.0,0.0,0.0,0.0,0.0,175.0,0.0,177.0,0.0,0.0,0.0,0.0,0.0,0.0,0.0,0.0,0.0,0.0,0.0,0.0,89.0,0.0,0.0,0.0,0.0,0.0,201.0,0.0,85.0,85.0,85.0,87.0,89.0,95.0,0.0,0.0,97.0,95.0,97.0,0.0,0.0,0.0,0.0,0.0,0.0,0.0,0.0,0.0,0.0,0.0,0.0,0.0,0.0,0.0,0.0,0.0,0.0,0.0,0.0,0.0,0.0,0.0,0.0,0.0,0.0,0.0,0.0,179.0,0.0,0.0,0.0,0.0,0.0,0.0,0.0,0.0,0.0,0.0,0.0,0.0,0.0,0.0,0.0,0.0,0.0,0.0,0.0,0.0,0.0,0.0,0.0,89.0,89.0,87.0,83.0,81.0,81.0,81.0,81.0,81.0,81.0,81.0,81.0,81.0,81.0,81.0,81.0,81.0,81.0,81.0,81.0,79.0,79.0,79.0,79.0,81.0,83.0,0.0,129.0,129.0,128.0,124.0,120.0,119.0,119.0,119.0,119.0,119.0,119.0,119.0,119.0,119.0,119.0,119.0,119.0,119.0,119.0,119.0,119.0,118.0,118.0,118.0,119.0,118.0,118.0,118.0,118.0,118.0,118.0,118.0,118.0,118.0,118.0,118.0,118.0,118.0,118.0,118.0,118.0,118.0,118.0,118.0,118.0,118.0,117.0,117.0,117.0,117.0,117.0,117.0,117.0,117.0,117.0,117.0,117.0,117.0,117.0,117.0,117.0,117.0,117.0,116.0,117.0,117.0,117.0,117.0,116.0,116.0,116.0,116.0,116.0,116.0,116.0,116.0,116.0,116.0,116.0,116.0,116.0,116.0,116.0,116.0,116.0,116.0,116.0,115.0,115.0,115.0,115.0,115.0,115.0,115.0,115.0,115.0,115.0,115.0,115.0,115.0,115.0,115.0,115.0,115.0,115.0,115.0,115.0,114.0,114.0,114.0,114.0,114.0,114.0,114.0,114.0,114.0,114.0,114.0,114.0,114.0,114.0,114.0,114.0,114.0,114.0,114.0,114.0,114.0,113.0,114.0,114.0,113.0,113.0,113.0,113.0,113.0,113.0,113.0,113.0,113.0,113.0,113.0,113.0,113.0,113.0,113.0,113.0,113.0,113.0,112.0,113.0,112.0,112.0,112.0,112.0,112.0,112.0,112.0,112.0,112.0,112.0,112.0,112.0,112.0,112.0,112.0,111.0,111.0,111.0,111.0,111.0,111.0,111.0,111.0,111.0,111.0,111.0,110.0,111.0,111.0,111.0,111.0,111.0,111.0,111.0,110.0,110.0,110.0,110.0,110.0,110.0,110.0,110.0,110.0,0.0
